# .PCD v0.7 - Point Cloud Data file format
VERSION 0.7
FIELDS x y z label
SIZE 4 4 4 4
TYPE F F F U
COUNT 1 1 1 1
WIDTH 1338
HEIGHT 1
VIEWPOINT 4.00001 1.99997 0.0997677 1 0 0 0
POINTS 1338
DATA ascii
3.1120539 2.4851048 0.10491478 1 -1
3.1372509 2.5106964 0.10757449 1 -1
3.139154 2.5372829 0.1156671 1 -1
3.1534443 2.5568893 0.10569778 1 -1
3.1545675 2.5859909 0.11973366 1 -1
3.1792769 2.6086776 0.12504607 1 -1
3.1856327 2.6258049 0.12134624 1 -1
3.1999218 2.6549253 0.12417582 1 -1
3.2166479 2.6790543 0.11743176 1 -1
3.2529936 2.699579 0.11772564 1 -1
3.2509968 2.7165208 0.11578676 1 -1
3.2718678 2.7238126 0.12660632 1 -1
3.2939484 2.7493286 0.10192645 1 -1
3.3008471 2.7764499 0.10849401 1 -1
3.3234885 2.7947218 0.12194693 1 -1
3.3555317 2.816699 0.097258121 1 -1
3.3772604 2.8278887 0.10409984 1 -1
3.3742278 2.8627856 0.11457404 1 -1
3.425657 2.8582659 0.098983794 1 -1
3.4425137 2.8711951 0.11978501 1 -1
3.4590044 2.9049411 0.11019021 1 -1
3.4771791 2.9169824 0.10579211 1 -1
3.5142503 2.914978 0.1232706 1 -1
3.5209832 2.925102 0.10298699 1 -1
3.5588486 2.942131 0.082882643 1 -1
3.5715551 2.9506702 0.12624621 1 -1
3.5911644 2.9794517 0.10421169 1 -1
3.6344645 2.968488 0.098822415 1 -1
3.6532097 2.9720848 0.10038474 1 -1
3.685137 2.988363 0.099093586 1 -1
3.703017 3.0117788 0.10384426 1 -1
3.7393463 2.9905512 0.12514246 1 -1
3.7579501 3.0074873 0.11115226 1 -1
3.7793641 3.0185771 0.093041539 1 -1
3.8337154 2.9948373 0.11000937 1 -1
3.8228481 3.0288887 0.10104844 1 -1
3.8500216 3.019464 0.11686134 1 -1
3.9028563 3.0209627 0.12059382 1 -1
3.9223685 3.0108471 0.12272847 1 -1
3.9451275 3.0323639 0.11066124 1 -1
3.9942713 3.0390873 0.11922947 1 -1
4.0259438 3.0315261 0.12038335 1 -1
4.0266418 2.9876614 0.1038765 1 -1
4.05024 3.0135412 0.093387485 1 -1
4.0870566 3.007504 0.11656797 1 -1
4.112349 2.9979403 0.10946178 1 -1
4.1287241 2.9797425 0.10793287 1 -1
4.1660066 2.9762793 0.10382268 1 -1
4.2039456 2.977797 0.13815123 1 -1
4.1953983 2.9646945 0.12006375 1 -1
4.2362251 2.9387336 0.10726413 1 -1
4.2715302 2.9595809 0.1077947 1 -1
4.2764144 2.9416442 0.10089725 1 -1
4.2929101 2.9250932 0.11219436 1 -1
4.3276386 2.9054713 0.10548112 1 -1
4.3758512 2.9119523 0.10344803 1 -1
4.3707428 2.9124503 0.10824502 1 -1
3.168906 2.128068 0.19367442 3 -1
3.174963 2.1557155 0.19651216 3 -1
3.1844165 2.2051311 0.17084473 3 -1
3.1723819 2.2149079 0.18147805 3 -1
3.1885207 2.2293444 0.18709305 3 -1
3.1698012 2.2682455 0.18450817 3 -1
3.1482513 2.2898052 0.18602687 3 -1
3.1513875 2.3029466 0.15577805 3 -1
3.1432929 2.3350375 0.1799351 3 -1
3.1320944 2.3473778 0.1586861 3 -1
3.1294184 2.395082 0.12872133 1 -1
3.1230054 2.4261613 0.12869918 1 -1
3.1078944 2.464401 0.15124375 3 -1
3.0790145 2.5008025 0.10480919 1 -1
3.0545123 2.5384214 0.10676041 1 -1
3.0849671 2.5780587 0.092895538 1 -1
3.0983868 2.5816891 0.10661513 1 -1
3.1113787 2.6178699 0.11890149 1 -1
3.109514 2.6419752 0.10566738 1 -1
3.139328 2.6523123 0.10007608 1 -1
3.1480813 2.688745 0.10635409 1 -1
3.1524634 2.7164602 0.11213911 1 -1
3.1904843 2.7473035 0.13565186 1 -1
3.2093041 2.7464836 0.11792576 1 -1
3.2209902 2.7710168 0.097804695 1 -1
3.2479143 2.7934227 0.11701587 1 -1
3.2743671 2.8043373 0.11044505 1 -1
3.2784255 2.8357449 0.11899588 1 -1
3.3185194 2.8657799 0.11549705 1 -1
3.3350925 2.8639345 0.10310856 1 -1
3.3449047 2.8973384 0.096418053 1 -1
3.3741465 2.9020047 0.10780647 1 -1
3.399807 2.9152536 0.10385674 1 -1
3.4371724 2.9327915 0.10254091 1 -1
3.4576705 2.9505649 0.12113038 1 -1
3.4665775 2.9536619 0.098887503 1 -1
3.5170531 2.9700215 0.10684508 1 -1
3.5071528 2.9735003 0.10586873 1 -1
3.5524528 3.0082641 0.11323524 1 -1
3.5783858 3.0215991 0.10448837 1 -1
3.6136432 3.0267711 0.11157998 1 -1
3.6358559 3.0326338 0.09501937 1 -1
3.6435022 3.0583081 0.10278988 1 -1
3.6920283 3.0502675 0.12148941 1 -1
3.7020054 3.0497646 0.10375166 1 -1
3.7495766 3.0471058 0.10657066 1 -1
3.7711709 3.082458 0.11223099 1 -1
3.8098054 3.0545197 0.12305701 1 -1
3.8414919 3.0674918 0.10511681 1 -1
3.8506672 3.0748281 0.095838517 1 -1
3.8838444 3.0674658 0.10350177 1 -1
3.9164374 3.0606985 0.13350064 1 -1
3.9375072 3.0713997 0.11669472 1 -1
3.9946167 3.0790663 0.1108627 1 -1
4.0235796 3.0718341 0.10838771 1 -1
4.0362077 3.072597 0.10627845 1 -1
4.0573502 3.0711632 0.11714488 1 -1
4.0992265 3.0683596 0.11510366 1 -1
4.1065388 3.0683956 0.11455321 1 -1
4.1377192 3.0469086 0.10614419 1 -1
4.1678939 3.0323668 0.12280744 1 -1
4.1894627 3.0122881 0.099867076 1 -1
4.2330856 3.0253067 0.11465132 1 -1
4.2531848 3.0238695 0.1094152 1 -1
4.2957582 3.0115113 0.12228823 1 -1
4.2974548 3.004725 0.1339089 1 -1
4.3412218 2.959409 0.12737682 1 -1
4.3722711 2.9592602 0.11368081 1 -1
4.3935161 2.9634819 0.11956823 1 -1
4.3957558 2.9536319 0.11348566 1 -1
3.1701522 2.1206698 0.21031061 3 -1
3.1887579 2.1693945 0.21070132 3 -1
3.1799309 2.1916401 0.19121224 3 -1
3.1611192 2.2233412 0.20805129 3 -1
3.1560159 2.2347951 0.20683581 3 -1
3.1647527 2.251035 0.19408455 3 -1
3.1584618 2.2852685 0.18978062 3 -1
3.1480999 2.3197649 0.17625141 3 -1
3.1534338 2.3284435 0.18995494 3 -1
3.1628377 2.3596706 0.17146415 3 -1
3.1258578 2.3838458 0.15391773 3 -1
3.1036105 2.4277294 0.16007394 3 -1
3.082438 2.4707348 0.14370999 1 -1
3.0796387 2.5162516 0.14143202 1 -1
3.0635304 2.557205 0.11992672 1 -1
3.0169866 2.5886602 0.11267012 1 -1
3.0440798 2.6230886 0.10723931 1 -1
3.0630872 2.6314411 0.10187307 1 -1
3.0626755 2.6906149 0.12309176 1 -1
3.0923133 2.6972499 0.10607037 1 -1
3.1136672 2.7296996 0.094101757 1 -1
3.1299763 2.755245 0.11345375 1 -1
3.120872 2.7720096 0.12221673 1 -1
3.1591911 2.7841563 0.11568534 1 -1
3.1764848 2.8254731 0.089750886 1 -1
3.2008758 2.8311279 0.10587382 1 -1
3.2353449 2.836967 0.11532003 1 -1
3.2503862 2.8930416 0.10749969 1 -1
3.2711811 2.8987658 0.11655316 1 -1
3.3127527 2.9020224 0.11281607 1 -1
3.3262832 2.9311302 0.099077702 1 -1
3.3414307 2.9541028 0.11537442 1 -1
3.3744798 2.9891152 0.10550606 1 -1
3.3902397 2.9978118 0.10977072 1 -1
3.4370937 3.0201776 0.10334566 1 -1
3.4434223 3.0223165 0.1166226 1 -1
3.4873455 3.0526624 0.095131516 1 -1
3.5044055 3.0528355 0.1103532 1 -1
3.5281858 3.0739722 0.1353898 1 -1
3.5600245 3.0605583 0.12004161 1 -1
3.5921421 3.0734544 0.10086542 1 -1
3.621783 3.0983806 0.10965943 1 -1
3.6660445 3.1091099 0.11920837 1 -1
3.6989963 3.1143594 0.11705077 1 -1
3.7050664 3.1225452 0.12625331 1 -1
3.7344415 3.118865 0.11631414 1 -1
3.7740805 3.1148758 0.11136568 1 -1
3.7997596 3.1445456 0.11649916 1 -1
3.8277702 3.141413 0.10275465 1 -1
3.8543861 3.1301682 0.09288919 1 -1
3.8833394 3.1342125 0.1117112 1 -1
3.9025342 3.1337304 0.11971816 1 -1
3.9462578 3.1476874 0.12258774 1 -1
3.9646254 3.1436646 0.10863647 1 -1
4.0331883 3.1250873 0.12775451 1 -1
4.0527129 3.1272023 0.10521141 1 -1
4.066884 3.1536355 0.10264078 1 -1
4.1131682 3.1269264 0.1253804 1 -1
4.1373134 3.1153083 0.097548008 1 -1
4.1638389 3.1161938 0.11321825 1 -1
4.1968079 3.1035485 0.09908998 1 -1
4.216938 3.0808721 0.10368934 1 -1
4.2586613 3.0848522 0.11925763 1 -1
4.2829189 3.085423 0.10222772 1 -1
4.2930136 3.0745738 0.11418146 1 -1
4.3239746 3.0578599 0.10642526 1 -1
4.3699784 3.0507765 0.10337076 1 -1
4.4104753 3.0281172 0.092987925 1 -1
4.4165211 3.0112691 0.11456108 1 -1
4.4505711 2.9941821 0.097410083 1 -1
3.1733074 2.1337435 0.22818506 3 -1
3.1900992 2.1629057 0.22055681 3 -1
3.1958086 2.1937516 0.20305014 3 -1
3.1891303 2.2177191 0.23704767 3 -1
3.1772442 2.2469814 0.20776078 3 -1
3.1635201 2.2492514 0.21336567 3 -1
3.1500835 2.2936742 0.21130159 3 -1
3.138845 2.3308771 0.20000142 3 -1
3.1279447 2.3523479 0.20320064 3 -1
3.1375265 2.3710864 0.20439547 3 -1
3.1177142 2.3957288 0.19363326 3 -1
3.1015177 2.4315133 0.18115348 3 -1
3.0952542 2.4729266 0.1611723 3 -1
3.0646327 2.4981844 0.1507577 3 -1
3.0478687 2.5422125 0.15490097 3 -1
3.0181837 2.5852282 0.13739058 1 -1
2.9920218 2.6560223 0.12142515 1 -1
3.00141 2.6752176 0.10373628 1 -1
3.0112405 2.7086976 0.11961147 1 -1
3.0308013 2.7477579 0.11509174 1 -1
3.065902 2.7582273 0.10988864 1 -1
3.0736256 2.7961345 0.10757709 1 -1
3.096633 2.7996938 0.13475123 1 -1
3.1149254 2.8337674 0.1271348 1 -1
3.1303518 2.885097 0.10785469 1 -1
3.1595876 2.8879619 0.1032699 1 -1
3.171977 2.8978078 0.10618156 1 -1
3.1960192 2.9269044 0.11083403 1 -1
3.2518361 2.9490485 0.11949903 1 -1
3.2457912 2.9685113 0.10656756 1 -1
3.2726998 3.0024843 0.091392547 1 -1
3.3198335 3.0078104 0.10244828 1 -1
3.3314991 3.0275755 0.10610819 1 -1
3.3507295 3.0366473 0.10452643 1 -1
3.3646865 3.0673406 0.10305285 1 -1
3.4152291 3.1024027 0.1007978 1 -1
3.4570661 3.0859866 0.098908335 1 -1
3.4746146 3.1231585 0.11886925 1 -1
3.5247865 3.1368876 0.10083342 1 -1
3.5258543 3.1722093 0.11784694 1 -1
3.5709782 3.1456075 0.11020711 1 -1
3.5987418 3.1644049 0.12015995 1 -1
3.6223476 3.1744456 0.11653864 1 -1
3.6605051 3.1784573 0.12108025 1 -1
3.6763415 3.1999197 0.10628453 1 -1
3.7230422 3.1887634 0.11630353 1 -1
3.7483974 3.2057557 0.10243726 1 -1
3.7937708 3.221128 0.1236136 1 -1
3.8101943 3.2108617 0.11195931 1 -1
3.8363836 3.2227306 0.11046433 1 -1
3.8760478 3.2098887 0.13021985 1 -1
3.9267197 3.2216334 0.10941398 1 -1
3.9500859 3.203768 0.10773101 1 -1
3.984808 3.1833477 0.12275419 1 -1
4.022222 3.2166944 0.10625988 1 -1
4.0595717 3.2024059 0.11069247 1 -1
4.0806799 3.1998172 0.120637 1 -1
4.1402102 3.2113338 0.11688629 1 -1
4.166338 3.1915441 0.12595451 1 -1
4.174037 3.1548576 0.11795247 1 -1
4.2207928 3.15114 0.098304272 1 -1
4.2325563 3.120307 0.1135276 1 -1
4.2679615 3.1006365 0.12053081 3 -1
4.2788825 3.0986228 0.13286737 3 -1
4.3389401 3.069855 0.13326842 3 -1
4.3452916 3.0844707 0.12261119 3 -1
4.3825798 3.0597413 0.11661026 1 -1
4.3970876 3.0383825 0.12891826 3 -1
4.4266953 3.0532093 0.11309195 1 -1
4.4507136 3.0295005 0.12449458 1 -1
3.1999424 2.1448374 0.23108624 3 -1
3.1800165 2.1662486 0.24472871 3 -1
3.1852653 2.1961806 0.25947735 3 -1
3.1682854 2.2053475 0.23855856 3 -1
3.1527433 2.2364166 0.22212051 3 -1
3.1801312 2.252022 0.2365194 3 -1
3.1551421 2.2905469 0.240714 3 -1
3.1493168 2.3121474 0.22579163 3 -1
3.1496077 2.3383863 0.22503959 3 -1
3.1308763 2.3683288 0.20777187 3 -1
3.1237078 2.3942926 0.21604308 3 -1
3.1005025 2.4196393 0.20343256 3 -1
3.1070676 2.4749711 0.19478577 3 -1
3.0874085 2.4953787 0.1880011 3 -1
3.0519695 2.5387914 0.19548598 3 -1
3.0290458 2.6015587 0.14502925 1 -1
2.978961 2.6550131 0.13355643 1 -1
2.929285 2.7240818 0.12542102 1 -1
2.9345217 2.7493634 0.12659597 1 -1
2.9774804 2.7805905 0.10021502 1 -1
2.9841433 2.7971373 0.13088277 1 -1
3.0062757 2.8327584 0.11482662 1 -1
3.0251081 2.8504767 0.1144408 1 -1
3.0472894 2.8821347 0.10363588 1 -1
3.0599635 2.9189005 0.098631501 1 -1
3.0903831 2.9478548 0.10381922 1 -1
3.1324556 2.9782982 0.10884887 1 -1
3.1489823 2.9910719 0.09578234 1 -1
3.1936946 3.0229011 0.10829294 1 -1
3.1965377 3.0341892 0.097982258 1 -1
3.2324395 3.0583785 0.10911313 1 -1
3.2544241 3.0907283 0.11031529 1 -1
3.2848992 3.0930035 0.12094259 1 -1
3.3194344 3.1254387 0.096950829 1 -1
3.3380001 3.1429553 0.099273264 1 -1
3.3855848 3.1581843 0.099288881 1 -1
3.4218464 3.1633716 0.11861834 1 -1
3.4501617 3.1806951 0.10491937 1 -1
3.4689295 3.2069898 0.10066658 1 -1
3.5125513 3.217206 0.11713451 1 -1
3.5442808 3.2377892 0.096666008 1 -1
3.5698247 3.242579 0.098916322 1 -1
3.5947332 3.241935 0.099484831 1 -1
3.6374958 3.2463255 0.12388256 1 -1
3.6783125 3.2488911 0.1011368 1 -1
3.7050359 3.2632751 0.097950459 1 -1
3.7517791 3.2618978 0.12386066 1 -1
3.7742453 3.2884321 0.1052255 1 -1
3.8234253 3.2840147 0.10542423 1 -1
3.8551571 3.2740469 0.11683422 1 -1
3.898736 3.2937136 0.11614361 1 -1
3.9289286 3.2799416 0.10584876 1 -1
3.9465876 3.2824335 0.11873776 1 -1
3.9874139 3.2796545 0.11074543 1 -1
4.0380244 3.2798328 0.11327025 1 -1
4.0689626 3.2676401 0.10517734 1 -1
4.0840883 3.2287521 0.11979848 1 -1
4.1098394 3.2096653 0.13087538 1 -1
4.142488 3.2042227 0.12346923 1 -1
4.1630769 3.1459031 0.14089945 1 -1
4.1970916 3.1371093 0.13796055 3 -1
4.2445183 3.114815 0.1518352 3 -1
4.2605519 3.0926428 0.13961047 3 -1
4.2888188 3.0876184 0.15135035 3 -1
4.3102217 3.0855279 0.1513899 3 -1
4.3424726 3.0841289 0.16534948 3 -1
4.3531823 3.0487261 0.1532917 3 -1
4.3954377 3.0600884 0.15122944 3 -1
4.4514918 3.0259285 0.16422236 3 -1
4.4514766 3.0484395 0.13427618 3 -1
3.1925941 2.1415865 0.26026607 3 -1
3.1934307 2.1478713 0.25640398 3 -1
3.2034888 2.201122 0.25260395 3 -1
3.160975 2.2201951 0.23100662 3 -1
3.176388 2.2230792 0.25457162 3 -1
3.1492598 2.2564003 0.27586484 3 -1
3.1605027 2.2675183 0.25258082 3 -1
3.1372054 2.3063221 0.23603803 3 -1
3.132405 2.3395677 0.24462494 3 -1
3.1357892 2.3562109 0.22304368 3 -1
3.1173425 2.4031048 0.22180906 3 -1
3.1027052 2.4227743 0.22492558 3 -1
3.0925586 2.4706554 0.21753392 3 -1
3.0668061 2.5104895 0.204862 3 -1
3.0523605 2.5405822 0.19903609 3 -1
3.0191064 2.6037741 0.17316365 3 -1
2.9920995 2.6325576 0.15473479 3 -1
2.8919864 2.7458253 0.13112202 1 -1
2.864747 2.7876961 0.11225834 1 -1
2.8865831 2.8252161 0.10440138 1 -1
2.9037127 2.8683646 0.14116555 1 -1
2.9223847 2.8970058 0.11030731 1 -1
2.94923 2.9240632 0.099911183 1 -1
2.9952333 2.9577 0.12290776 1 -1
3.003706 2.9874511 0.10965899 1 -1
3.0378644 3.012341 0.11537436 1 -1
3.0634358 3.0428295 0.10774398 1 -1
3.0772901 3.0718369 0.10409069 1 -1
3.113606 3.0924764 0.12661803 1 -1
3.1515398 3.1068404 0.11091956 1 -1
3.1895905 3.1430557 0.10783634 1 -1
3.2048903 3.1533809 0.12978181 1 -1
3.240988 3.1815 0.093211383 1 -1
3.2773178 3.2008033 0.11310053 1 -1
3.2979095 3.2010727 0.1234746 1 -1
3.3450663 3.2318921 0.10874614 1 -1
3.3710992 3.2450545 0.12568006 1 -1
3.4156344 3.2876024 0.11556986 1 -1
3.4384844 3.2772665 0.11679476 1 -1
3.4836903 3.2993729 0.10009247 1 -1
3.513824 3.2974 0.1090802 1 -1
3.5531955 3.3254285 0.13263443 1 -1
3.5902278 3.3335283 0.10803613 1 -1
3.6229031 3.3508506 0.13305369 1 -1
3.6644688 3.3561912 0.11048546 1 -1
3.6800613 3.3634107 0.10046443 1 -1
3.7314224 3.3783221 0.11550096 1 -1
3.7744231 3.3708477 0.11131728 1 -1
3.802084 3.3605864 0.10195267 1 -1
3.8492491 3.379735 0.10456273 1 -1
3.8960543 3.3838215 0.10353673 1 -1
3.926116 3.382355 0.090333998 1 -1
3.959619 3.3535981 0.12301525 1 -1
3.9701474 3.3447914 0.14256021 3 -1
4.0160732 3.3001113 0.15873021 3 -1
4.0578899 3.2654371 0.1572082 3 -1
4.0972862 3.2371414 0.15426442 3 -1
4.1158018 3.2109244 0.15465513 3 -1
4.156188 3.1813569 0.1854924 3 -1
4.168962 3.1595178 0.15416604 3 -1
4.2028699 3.1261797 0.19282565 3 -1
4.2205949 3.1273737 0.17272905 3 -1
4.2688737 3.1161308 0.17205411 3 -1
4.2981057 3.1036549 0.17529058 3 -1
4.3284454 3.0880532 0.17854485 3 -1
4.3493834 3.0634189 0.18350556 3 -1
4.3661337 3.0425501 0.17163265 3 -1
4.3970194 3.0629606 0.17255089 3 -1
4.4447432 3.0341935 0.19111273 3 -1
4.4389143 3.0284147 0.18726033 3 -1
3.1995063 2.1360683 0.27115893 3 -1
3.1753826 2.1778491 0.27066022 3 -1
3.1675024 2.1880345 0.2766138 3 -1
3.1758084 2.2001798 0.29715011 3 -1
3.1686776 2.2320781 0.26587874 3 -1
3.1610522 2.253165 0.25613153 3 -1
3.1702852 2.284162 0.24824549 3 -1
3.1385932 2.3104722 0.25610805 3 -1
3.1420341 2.3398077 0.26384595 3 -1
3.1330333 2.3621686 0.24548168 3 -1
3.1047926 2.3911736 0.25492716 3 -1
3.1150842 2.4161344 0.24923731 3 -1
3.0824621 2.4513152 0.23160128 3 -1
3.0769544 2.4845879 0.23576757 3 -1
3.0635276 2.5372515 0.22042698 3 -1
3.0164747 2.5877764 0.18848804 3 -1
2.9739871 2.6600089 0.18542746 3 -1
2.8955059 2.73506 0.1633209 3 -1
2.7894807 2.8529928 0.1075106 1 -1
2.7708051 2.8858027 0.096193671 1 -1
2.8050795 2.923305 0.097213835 1 -1
2.8668156 2.9543886 0.12903377 1 -1
2.8666649 2.9829962 0.10695994 1 -1
2.9034173 3.0415473 0.14491028 1 -1
2.9230838 3.0547495 0.11355513 1 -1
2.9483862 3.0917864 0.10471818 1 -1
2.9835951 3.1083946 0.10444024 1 -1
3.017823 3.1489534 0.11513525 1 -1
3.0569186 3.1603045 0.11516234 1 -1
3.095906 3.189122 0.11609384 1 -1
3.1059613 3.2167258 0.1126422 1 -1
3.1450238 3.2447038 0.10549217 1 -1
3.1612532 3.2418075 0.11521763 1 -1
3.2407303 3.3029118 0.10851631 1 -1
3.2649946 3.3171754 0.11825135 1 -1
3.2915223 3.3127608 0.12199131 1 -1
3.3397906 3.3347702 0.11273813 1 -1
3.3406181 3.3778725 0.098938346 1 -1
3.3879473 3.3872094 0.11622992 1 -1
3.4441226 3.3809805 0.12720287 1 -1
3.4888012 3.4119577 0.13033509 1 -1
3.5164566 3.4279876 0.10451099 1 -1
3.539068 3.4277372 0.10998732 1 -1
3.6013227 3.4572108 0.11386326 1 -1
3.649817 3.4606171 0.10151514 1 -1
3.6602879 3.4800289 0.11108366 1 -1
3.7062907 3.4741924 0.1232143 1 -1
3.7592621 3.4594581 0.11438164 1 -1
3.8048778 3.488399 0.11793661 1 -1
3.8290091 3.4713726 0.099190384 1 -1
3.8881125 3.4844165 0.1246765 1 -1
3.913301 3.4196825 0.14681047 3 -1
3.9546144 3.3555679 0.14414936 3 -1
3.9865334 3.3176754 0.14603615 3 -1
4.0313554 3.3013554 0.16954944 3 -1
4.0465293 3.2544188 0.17733613 3 -1
4.0822487 3.2239389 0.17850751 3 -1
4.1280146 3.1888142 0.19505519 3 -1
4.1497455 3.1778276 0.18820453 3 -1
4.1746187 3.1563849 0.1880247 3 -1
4.204792 3.1416934 0.20179984 3 -1
4.2233853 3.1169956 0.19666505 3 -1
4.2550907 3.0966754 0.19408372 3 -1
4.2941236 3.1012163 0.21103469 3 -1
4.330565 3.0829418 0.19300687 3 -1
4.3317537 3.0612061 0.21378911 3 -1
4.3812294 3.0462055 0.21034512 3 -1
4.4112945 3.0408969 0.2016401 3 -1
4.431428 3.030169 0.20766211 3 -1
4.4541259 3.0287852 0.19737196 3 -1
3.1702948 2.1558955 0.29673305 3 -1
3.1777661 2.1552145 0.29962817 3 -1
3.1663415 2.1921942 0.30386785 3 -1
3.1761005 2.2250531 0.28947949 3 -1
3.1778412 2.2435234 0.27613282 3 -1
3.1664684 2.2650161 0.28309357 3 -1
3.1466322 2.3007438 0.27662408 3 -1
3.1471577 2.3262217 0.28869808 3 -1
3.1530242 2.3401525 0.28226161 3 -1
3.1281152 2.363512 0.26549846 3 -1
3.1238725 2.4151289 0.24793841 3 -1
3.1012206 2.4263768 0.2759946 3 -1
3.11531 2.4642477 0.27225065 3 -1
3.0883996 2.4973524 0.25256193 3 -1
3.0441906 2.5534055 0.23408173 3 -1
3.0247688 2.6000214 0.23037855 3 -1
2.9579892 2.655231 0.21963662 3 -1
2.8915071 2.7238684 0.18870527 3 -1
2.6807451 2.9217081 0.12581137 1 -1
2.6947463 2.9518569 0.13599238 1 -1
2.7251439 2.9955382 0.13835433 1 -1
2.7530446 3.0356507 0.10313717 1 -1
2.7760544 3.0541151 0.11100346 1 -1
2.8024297 3.1064346 0.11872262 1 -1
2.8607488 3.1120448 0.10584432 1 -1
2.8678026 3.1652682 0.10935193 1 -1
2.9083796 3.1997437 0.1060563 1 -1
2.9538634 3.229254 0.11202464 1 -1
2.9620357 3.2572241 0.11693043 1 -1
3.0061753 3.2715001 0.12183532 1 -1
3.0172381 3.3417499 0.12897956 1 -1
3.0658576 3.3334699 0.10374266 1 -1
3.0981188 3.3785362 0.11231041 1 -1
3.1410921 3.3879209 0.092696339 1 -1
3.1808696 3.4418712 0.10594499 1 -1
3.2244868 3.441803 0.11658853 1 -1
3.2680349 3.4516168 0.10426986 1 -1
3.3005452 3.4667981 0.11622983 1 -1
3.3525896 3.4801123 0.11865517 1 -1
3.3997412 3.5148358 0.11674604 1 -1
3.4205761 3.5526793 0.11321366 1 -1
3.4621992 3.5283465 0.11198023 1 -1
3.5163453 3.5688651 0.13156062 1 -1
3.5609403 3.5646815 0.11153385 1 -1
3.6078711 3.5727456 0.11357409 1 -1
3.6541948 3.5805702 0.10098541 1 -1
3.6949918 3.5907469 0.1210646 1 -1
3.7488158 3.5971284 0.095122963 1 -1
3.7798009 3.6163378 0.097924829 1 -1
3.8238349 3.5771532 0.12470558 1 -1
3.8661706 3.4793677 0.13917017 1 -1
3.9184048 3.4146948 0.16748202 3 -1
3.9381905 3.3675213 0.17819381 3 -1
3.9807453 3.3107357 0.20187446 3 -1
4.0423565 3.2822132 0.18442339 3 -1
4.0477271 3.2677546 0.18571419 3 -1
4.0945077 3.2250381 0.20813164 3 -1
4.1221151 3.1967883 0.20473987 3 -1
4.1553001 3.1689873 0.19933149 3 -1
4.1801443 3.1717675 0.23263218 3 -1
4.2012258 3.140754 0.2212182 3 -1
4.24224 3.1101952 0.22277737 3 -1
4.2694383 3.1206417 0.23006541 3 -1
4.2891855 3.0964706 0.21954513 3 -1
4.3289661 3.0870833 0.23546295 3 -1
4.3393521 3.0624719 0.2225312 3 -1
4.3856006 3.0598979 0.21387517 3 -1
4.4225388 3.0412216 0.228 3 -1
4.4402509 3.0242095 0.22425063 3 -1
4.4473948 3.0415134 0.22700992 3 -1
3.1752439 2.1426735 0.32287705 3 -1
3.1840086 2.1607077 0.32788408 3 -1
3.1819682 2.1938102 0.32001397 3 -1
3.1812556 2.2295251 0.30085224 3 -1
3.1642845 2.2449427 0.30142495 3 -1
3.1678476 2.2683151 0.29252458 3 -1
3.148809 2.2653713 0.29829681 3 -1
3.1401026 2.301486 0.30151683 3 -1
3.1391678 2.3279471 0.29950029 3 -1
3.131083 2.3655937 0.29915422 3 -1
3.1106384 2.392544 0.28072721 3 -1
3.111954 2.4332395 0.288748 3 -1
3.1094127 2.456955 0.28716332 3 -1
3.0885425 2.5110693 0.25389075 3 -1
3.0410328 2.5428243 0.25664046 3 -1
3.0086267 2.59097 0.24296725 3 -1
2.9896274 2.6476824 0.24042413 3 -1
2.9089353 2.7200518 0.21535829 3 -1
2.5500727 3.010726 0.11145836 1 -1
2.5758061 3.0421743 0.1275377 1 -1
2.5906327 3.0826824 0.11221689 1 -1
2.6442046 3.1204562 0.10448471 1 -1
2.6641922 3.1788955 0.11488417 1 -1
2.6869421 3.2113445 0.10197523 1 -1
2.7317426 3.2451491 0.1319564 1 -1
2.7619529 3.2734895 0.11145929 1 -1
2.8000937 3.2951698 0.11661366 1 -1
2.8427401 3.3534212 0.11647809 1 -1
2.8634157 3.378922 0.1170688 1 -1
2.8987546 3.4132104 0.10328189 1 -1
2.9594495 3.4288025 0.10640761 1 -1
2.9833202 3.4633515 0.11020687 1 -1
3.0500026 3.5102901 0.11181599 1 -1
3.0707645 3.4999108 0.12495396 1 -1
3.1351702 3.5579896 0.11414719 1 -1
3.1356535 3.5515511 0.12167853 1 -1
3.1963065 3.6003385 0.10181379 1 -1
3.2464447 3.6174946 0.11461437 1 -1
3.2914164 3.6312904 0.11987674 1 -1
3.3333395 3.6402764 0.14414763 1 -1
3.3813474 3.6532779 0.1223805 1 -1
3.4317923 3.6901712 0.11650965 1 -1
3.4880903 3.7003441 0.12028834 1 -1
3.5516071 3.688982 0.11418855 1 -1
3.5767777 3.7119393 0.10162631 1 -1
3.6199272 3.7225709 0.13309413 1 -1
3.6897247 3.7278352 0.11723113 1 -1
3.7143788 3.743494 0.12012601 1 -1
3.7782025 3.7346344 0.12606731 1 -1
3.8395395 3.5437589 0.1615276 3 -1
3.8843725 3.4797986 0.17476285 3 -1
3.9203696 3.4110093 0.18450317 3 -1
3.9570169 3.3642535 0.21267068 3 -1
3.9885571 3.3363929 0.2204307 3 -1
4.0191636 3.2873168 0.21610048 3 -1
4.0583673 3.2530508 0.23667687 3 -1
4.1025257 3.2243934 0.23505844 3 -1
4.1002741 3.1939373 0.23316078 3 -1
4.1491256 3.1701527 0.22674112 3 -1
4.1703191 3.1400847 0.22481062 3 -1
4.2037473 3.1470046 0.24309719 3 -1
4.2264051 3.1331325 0.22949731 3 -1
4.2680817 3.1272926 0.2452351 3 -1
4.2788143 3.1006122 0.26105499 3 -1
4.3148909 3.0959587 0.24401608 3 -1
4.3451867 3.0726213 0.24759822 3 -1
4.3723001 3.0447373 0.26695442 3 -1
4.4064822 3.0520453 0.23852541 3 -1
4.4377794 3.0376029 0.23271348 3 -1
4.4419832 3.0431986 0.25095445 3 -1
3.2066169 2.1531453 0.33269784 3 -1
3.1669669 2.1626451 0.32222083 3 -1
3.1926756 2.1900311 0.32038352 3 -1
3.176188 2.21403 0.31648675 3 -1
3.1792307 2.2448971 0.31757003 3 -1
3.177654 2.2624121 0.33118999 3 -1
3.1626806 2.2812636 0.33218706 3 -1
3.1573515 2.3224406 0.32076222 3 -1
3.1364813 2.33231 0.33063579 3 -1
3.1351676 2.3620384 0.31381977 3 -1
3.1109796 2.4150851 0.29658169 3 -1
3.0906215 2.4266429 0.29747266 3 -1
3.1086283 2.4509172 0.32537067 3 -1
3.0769229 2.504384 0.28629014 3 -1
3.0453873 2.5142295 0.29497683 3 -1
3.0203753 2.5984852 0.2785123 3 -1
2.9843645 2.6550527 0.25130612 3 -1
2.9125495 2.7263961 0.24960206 3 -1
2.3813081 3.0900273 0.11569834 1 -1
2.4396586 3.1384387 0.11724859 1 -1
2.4657674 3.1915708 0.12044322 1 -1
2.4744961 3.2455921 0.10918227 1 -1
2.5365565 3.249943 0.13150588 1 -1
2.6072636 3.32026 0.10982668 1 -1
2.5690141 3.330225 0.10871547 1 -1
2.6165307 3.4031849 0.11972904 1 -1
2.6833382 3.4482303 0.11266264 1 -1
2.7148397 3.4773674 0.127924 1 -1
2.7507081 3.5095019 0.12294832 1 -1
2.7929978 3.550076 0.11036676 1 -1
2.8404737 3.5761683 0.11915222 1 -1
2.8838782 3.6183114 0.12711698 1 -1
2.925427 3.6329062 0.11403438 1 -1
2.9882655 3.6790209 0.12079915 1 -1
3.0372891 3.7051449 0.12950259 1 -1
3.0805187 3.7374191 0.11427128 1 -1
3.1228757 3.7566042 0.11778617 1 -1
3.1827788 3.7793043 0.11386976 1 -1
3.2091625 3.7885838 0.12945646 1 -1
3.2823894 3.8273523 0.11115634 1 -1
3.3212276 3.8210349 0.13181454 1 -1
3.3743219 3.853302 0.11585665 1 -1
3.4266534 3.8604321 0.11319536 1 -1
3.4877918 3.876591 0.11282408 1 -1
3.5310102 3.8880215 0.11049241 1 -1
3.5720932 3.9153118 0.11516491 1 -1
3.6440425 3.9124861 0.13056311 1 -1
3.7038457 3.9315252 0.099086821 1 -1
3.7853913 3.7130218 0.14656183 1 -1
3.8395705 3.5594831 0.20745715 3 -1
3.8909273 3.475848 0.20133418 3 -1
3.9174471 3.4264193 0.21803731 3 -1
3.9609833 3.3655257 0.23346655 3 -1
3.9979465 3.3211126 0.23859626 3 -1
4.0215607 3.2785268 0.24006701 3 -1
4.0533981 3.2706518 0.24215671 3 -1
4.1030755 3.2340341 0.24685849 3 -1
4.1154284 3.2100382 0.2400299 3 -1
4.142581 3.1616945 0.26589796 3 -1
4.1871071 3.159915 0.26664084 3 -1
4.2055445 3.1390128 0.28631508 3 -1
4.2242785 3.1215451 0.27572837 3 -1
4.2751765 3.0884769 0.28676423 3 -1
4.2867603 3.0981064 0.26041317 3 -1
4.3159504 3.0793653 0.27995569 3 -1
4.3534107 3.0619123 0.26178107 3 -1
4.3795619 3.0498571 0.26993522 3 -1
4.4137721 3.0491469 0.27231979 3 -1
4.4303617 3.0347471 0.26492023 3 -1
4.4347105 3.0412059 0.28151274 3 -1
3.1956615 2.1457787 0.3644985 3 -1
3.1959898 2.161593 0.3406601 3 -1
3.179513 2.1953743 0.34053263 3 -1
3.1792417 2.2186842 0.35144514 3 -1
3.1744494 2.2234356 0.33107564 3 -1
3.1492651 2.2572277 0.3404786 3 -1
3.158767 2.2752144 0.33159643 3 -1
3.1318874 2.3198709 0.3325358 3 -1
3.1641345 2.3499498 0.32028401 3 -1
3.1499128 2.3694041 0.32542077 3 -1
3.1341152 2.4093316 0.3237986 3 -1
3.1129663 2.4251642 0.32364792 3 -1
3.0997741 2.4616532 0.30978999 3 -1
3.0885134 2.4901395 0.30849963 3 -1
3.0449147 2.5504622 0.31167191 3 -1
3.0169506 2.5849764 0.29702023 3 -1
2.990361 2.6643298 0.28982079 3 -1
2.8959851 2.7308514 0.24122868 3 -1
2.2061319 3.2226014 0.12754151 1 -1
2.243999 3.2661676 0.12284556 1 -1
2.2991085 3.3097792 0.12144887 1 -1
2.3226705 3.396462 0.13732624 1 -1
2.3657632 3.4244137 0.11134207 1 -1
2.391866 3.4597554 0.11005971 1 -1
2.4411159 3.5035167 0.10871872 1 -1
2.4948645 3.543123 0.12808782 1 -1
2.5384846 3.5888758 0.13008475 1 -1
2.5606256 3.6234677 0.11425847 1 -1
2.613503 3.6860151 0.14621362 1 -1
2.6409376 3.7212825 0.13593587 1 -1
2.7087855 3.7499032 0.12940833 1 -1
2.7806361 3.786468 0.11173311 1 -1
2.8160787 3.81953 0.11949185 1 -1
2.865454 3.8326387 0.12325361 1 -1
2.9111698 3.8951678 0.11444649 1 -1
2.9664898 3.895473 0.12656036 1 -1
3.0140162 3.932843 0.13369086 1 -1
3.1008954 3.9876726 0.12095219 1 -1
3.139189 3.9743948 0.10895339 1 -1
3.2037525 4.0075712 0.11975175 1 -1
3.2544351 4.0319448 0.12548557 1 -1
3.3074381 4.0527282 0.11924964 1 -1
3.3623981 4.0848379 0.12045982 1 -1
3.4286318 4.0889497 0.11778423 1 -1
3.4960098 4.1129003 0.14089936 1 -1
3.556303 4.1084948 0.1205613 1 -1
3.6158547 4.1319418 0.12546968 1 -1
3.680306 4.1345129 0.14311329 1 -1
3.745049 3.7294908 0.19785988 1 -1
3.8333642 3.5438168 0.22525385 3 -1
3.8634324 3.4658892 0.23725276 3 -1
3.9348547 3.3991642 0.25924855 3 -1
3.9662282 3.3512201 0.2804684 3 -1
3.9936376 3.3213873 0.27064222 3 -1
4.0238547 3.2931297 0.26681685 3 -1
4.0518394 3.2580228 0.27850491 3 -1
4.0913301 3.2187076 0.29729882 3 -1
4.1170282 3.1964393 0.30308864 3 -1
4.1488957 3.1880617 0.27604574 3 -1
4.1804523 3.1719263 0.28322423 3 -1
4.2102156 3.1434503 0.30911589 3 -1
4.2425456 3.1213167 0.30636591 3 -1
4.2689695 3.1022677 0.28190565 3 -1
4.3086472 3.1058829 0.30243453 3 -1
4.3224401 3.0673056 0.28862756 3 -1
4.3620701 3.0794239 0.28126547 3 -1
4.3729687 3.0508306 0.2941066 3 -1
4.4197216 3.0456245 0.27535051 3 -1
4.4302135 3.0224981 0.29072297 3 -1
4.4554362 3.0308728 0.28299695 3 -1
3.18712 2.1401684 0.36108834 3 -1
3.1934359 2.1725125 0.33820122 3 -1
3.1908493 2.1961646 0.36468029 3 -1
3.1773763 2.2242641 0.35589981 3 -1
3.1740649 2.2284288 0.35663998 3 -1
3.1645761 2.2669265 0.35412663 3 -1
3.1632316 2.2637918 0.34680498 3 -1
3.169107 2.3002563 0.36273897 3 -1
3.1494417 2.3408093 0.34676021 3 -1
3.1562405 2.3754017 0.34896705 3 -1
3.1114056 2.3990002 0.33593306 3 -1
3.1186285 2.4395356 0.34391123 3 -1
3.090528 2.4780462 0.32252944 3 -1
3.0709255 2.4985304 0.32529137 3 -1
3.0399363 2.5442863 0.33635306 3 -1
3.0225618 2.5839505 0.30974737 3 -1
2.9640357 2.6618154 0.3090519 3 -1
2.9055276 2.7333612 0.28144625 3 -1
1.9598308 3.3419266 0.12099922 1 -1
2.0388165 3.4366555 0.11108983 1 -1
2.0600455 3.4758878 0.10947382 1 -1
2.1000729 3.5324903 0.12392473 1 -1
2.1602449 3.6001766 0.14266711 1 -1
2.2009411 3.6420901 0.13997138 1 -1
2.2466769 3.6679757 0.13642579 1 -1
2.3008518 3.7374237 0.13224101 1 -1
2.3451548 3.7994432 0.13541821 1 -1
2.3800077 3.8458748 0.13028097 1 -1
2.4403811 3.8833389 0.14090371 1 -1
2.503222 3.9316454 0.10524964 1 -1
2.567101 3.98002 0.12395823 1 -1
2.5995436 4.0116053 0.12126184 1 -1
2.6752796 4.0566788 0.12311333 1 -1
2.7179801 4.0954113 0.11480635 1 -1
2.7939832 4.1364403 0.11548558 1 -1
2.8557558 4.1692486 0.13598374 1 -1
2.9008248 4.1871967 0.11191213 1 -1
2.9606071 4.2297664 0.13748762 1 -1
3.0452955 4.2482586 0.12165371 1 -1
3.0847306 4.2690325 0.11387399 1 -1
3.1478329 4.3059702 0.12742567 1 -1
3.2450399 4.3182878 0.13341546 1 -1
3.2969034 4.3363142 0.14343551 1 -1
3.376652 4.3574753 0.10906178 1 -1
3.444664 4.3772631 0.10776487 1 -1
3.5033035 4.3787613 0.097352117 1 -1
3.5528686 4.3906579 0.13199753 1 -1
3.641588 4.4131212 0.11807671 1 -1
3.7672887 3.735189 0.22446331 3 -1
3.8383372 3.5497365 0.26099607 3 -1
3.8707719 3.4637322 0.24565916 3 -1
3.9199996 3.4391208 0.27297276 3 -1
3.9413249 3.3570819 0.28552684 3 -1
3.9942541 3.3155563 0.29013735 3 -1
4.0095448 3.2959442 0.27249014 3 -1
4.0820518 3.246757 0.30944619 3 -1
4.0881991 3.2143369 0.29399812 3 -1
4.127696 3.2321286 0.30968371 3 -1
4.1388936 3.1798315 0.30655676 3 -1
4.1592317 3.1698389 0.30142593 3 -1
4.2010355 3.1277771 0.31987542 3 -1
4.2209907 3.1151438 0.30978188 3 -1
4.256218 3.1221974 0.31651908 3 -1
4.2763615 3.0967512 0.30849957 3 -1
4.3143954 3.0706232 0.29955512 3 -1
4.3599286 3.0716684 0.31093645 3 -1
4.3706093 3.0451143 0.30822137 3 -1
4.3925405 3.0454698 0.29901215 3 -1
4.4346876 3.0225804 0.31290722 3 -1
4.4581838 3.0313385 0.30223155 3 -1
3.192529 2.1554444 0.37227333 3 -1
3.1999087 2.1740026 0.37900144 3 -1
3.1811419 2.1993814 0.38447279 3 -1
3.1824288 2.2139134 0.36506265 3 -1
3.1564865 2.2282615 0.36297494 3 -1
3.1641545 2.2571044 0.38551849 3 -1
3.1522205 2.2747157 0.37004918 3 -1
3.1458235 2.30721 0.37095612 3 -1
3.1467981 2.3254588 0.36745322 3 -1
3.1509933 2.3582096 0.38615751 3 -1
3.1159239 2.4073853 0.34574902 3 -1
3.1243179 2.420162 0.35862094 3 -1
3.0814767 2.4647336 0.35177094 3 -1
3.0592947 2.5010874 0.35893613 3 -1
3.050523 2.5326748 0.35458988 3 -1
3.0331941 2.579927 0.34497315 3 -1
2.9738383 2.6538649 0.32765028 3 -1
2.901413 2.734947 0.31585032 3 -1
1.6625049 3.5517502 0.12979829 1 -1
1.7146857 3.6230698 0.13427487 1 -1
1.7725477 3.7102735 0.12767917 1 -1
1.8220763 3.7581046 0.13072112 1 -1
1.858001 3.8192811 0.12927154 1 -1
1.9162724 3.8820786 0.11881509 1 -1
1.9994588 3.9406114 0.13249981 1 -1
2.0481529 3.9785085 0.13318387 1 -1
2.0881662 4.0649242 0.12735638 1 -1
2.1458609 4.1078606 0.11461887 1 -1
2.1956649 4.1574879 0.1371122 1 -1
2.2661018 4.1959906 0.12228736 1 -1
2.3541 4.2359152 0.12349087 1 -1
2.4168377 4.2903266 0.13967201 1 -1
2.471379 4.3584461 0.12712091 1 -1
2.5353043 4.4080076 0.14767906 1 -1
2.6049261 4.4139614 0.13622871 1 -1
2.6712904 4.489357 0.12611374 1 -1
2.7562799 4.4904985 0.1120286 1 -1
2.8235247 4.5487366 0.14281404 1 -1
2.8882549 4.5775766 0.13415092 1 -1
2.9712825 4.5997262 0.12086794 1 -1
3.0251477 4.6392097 0.12930891 1 -1
3.1227679 4.6474333 0.13069317 1 -1
3.1896024 4.67204 0.1286394 1 -1
3.294764 4.6983633 0.12649971 1 -1
3.3606348 4.719306 0.1259394 1 -1
3.4289486 4.7470741 0.12252361 1 -1
3.491771 4.7522068 0.12509474 1 -1
3.6019981 4.7537122 0.14225128 1 -1
3.8109031 3.7250586 0.25881401 3 -1
3.8189299 3.5616813 0.28972927 3 -1
3.8959031 3.4950347 0.29874653 3 -1
3.8968825 3.4296293 0.30622452 3 -1
3.9530642 3.3486199 0.32126343 3 -1
3.9909425 3.3286414 0.32524914 3 -1
4.0261331 3.2881875 0.3161051 3 -1
4.0544872 3.2450867 0.32575613 3 -1
4.0906439 3.2127693 0.33688772 3 -1
4.1276774 3.2009416 0.31274927 3 -1
4.152812 3.1824992 0.30924577 3 -1
4.1676168 3.1514466 0.32480255 3 -1
4.212091 3.1542821 0.33936065 3 -1
4.2346582 3.1254272 0.33137226 3 -1
4.2537084 3.1256371 0.35479945 3 -1
4.2693753 3.0744417 0.32421741 3 -1
4.3247004 3.0568297 0.33488777 3 -1
4.3374839 3.0623627 0.35003811 3 -1
4.3696856 3.0386827 0.34109682 3 -1
4.3963084 3.0422261 0.34666952 3 -1
4.434082 3.0432286 0.33351535 3 -1
4.437603 3.0430579 0.33225659 3 -1
3.1777916 2.1423433 0.39438838 3 -1
3.2009218 2.1783164 0.39751321 3 -1
3.1712379 2.1750126 0.37645531 3 -1
3.1701391 2.2244847 0.39988524 3 -1
3.1605051 2.2353208 0.38126987 3 -1
3.169503 2.2624943 0.38527578 3 -1
3.1575873 2.290673 0.38260031 3 -1
3.1624696 2.3151011 0.38510102 3 -1
3.159862 2.344698 0.39773953 3 -1
3.1361117 2.3594499 0.37205124 3 -1
3.1251135 2.3921099 0.37129837 3 -1
3.1165786 2.4171531 0.3829717 3 -1
3.1030788 2.4584339 0.40386808 3 -1
3.0749812 2.4923804 0.3854202 3 -1
3.0494385 2.5546556 0.37992293 3 -1
3.0115972 2.6042688 0.35196072 3 -1
2.9888477 2.6366987 0.35195166 3 -1
2.9008694 2.724334 0.36196077 3 -1
1.2664721 3.8259244 0.14779711 1 -1
1.2877979 3.8970742 0.14076525 1 -1
1.3655798 3.9989693 0.13809559 1 -1
1.4104698 4.0629563 0.14042789 1 -1
1.5623341 4.0718012 0.14730901 3 -1
1.7185557 4.0310392 0.18319935 3 -1
1.8455596 4.0497866 0.16342601 3 -1
1.9519601 4.0658522 0.18088427 3 -1
2.0717754 4.1011596 0.18027881 3 -1
2.1181374 4.1247454 0.17820469 3 -1
2.2041993 4.1692324 0.17376107 3 -1
2.2792125 4.2249722 0.19236004 3 -1
2.3211615 4.2282424 0.18532741 3 -1
2.3984122 4.2921877 0.20914105 3 -1
2.454442 4.3536878 0.18332261 3 -1
2.5176227 4.4164276 0.17425296 3 -1
2.5810599 4.4784689 0.19129473 3 -1
2.6300201 4.5498714 0.1792801 3 -1
2.6732302 4.6492653 0.17503461 3 -1
2.7119932 4.7572298 0.15152133 3 -1
2.7434525 4.9499569 0.15456873 3 -1
2.8042035 5.0786147 0.1254811 1 -1
2.8839731 5.0995798 0.14411643 1 -1
2.9606972 5.1186237 0.14309633 1 -1
3.0776677 5.1657257 0.14056098 1 -1
3.1487021 5.1811838 0.13349369 1 -1
3.2635388 5.2003484 0.11924011 1 -1
3.3403149 5.2217965 0.12786484 1 -1
3.4645047 5.2301478 0.13300306 1 -1
3.5165868 5.2421346 0.11997297 1 -1
3.7768731 3.7175975 0.31133574 3 -1
3.8486907 3.5640912 0.32281542 3 -1
3.8875117 3.4904485 0.32521629 3 -1
3.9148917 3.4259105 0.33529603 3 -1
3.9848864 3.3640203 0.3335619 3 -1
3.9843183 3.3270216 0.34409079 3 -1
4.0305195 3.286284 0.35000032 3 -1
4.0711694 3.2591126 0.32469976 3 -1
4.0871897 3.2141986 0.35683477 3 -1
4.1081028 3.1917155 0.36909539 3 -1
4.1465597 3.1897364 0.35622346 3 -1
4.1824698 3.164042 0.34921375 3 -1
4.2182374 3.1371045 0.35732174 3 -1
4.2243719 3.1301346 0.3685205 3 -1
4.254138 3.0884018 0.35705209 3 -1
4.2902536 3.104764 0.37241369 3 -1
4.3228397 3.0622649 0.36635995 3 -1
4.3629327 3.0799799 0.35537881 3 -1
4.3808303 3.0756187 0.37828964 3 -1
4.4110618 3.04213 0.34127164 3 -1
4.4401274 3.0260153 0.32524192 3 -1
4.4613228 3.0407753 0.36548716 3 -1
3.1798983 2.1484249 0.41201794 3 -1
3.1793053 2.1741364 0.40920353 3 -1
3.1927261 2.1760676 0.4164331 3 -1
3.1783435 2.2181702 0.40384972 3 -1
3.1740749 2.2086346 0.41935092 3 -1
3.1821976 2.2606122 0.38854837 3 -1
3.1666455 2.2867756 0.40826285 3 -1
3.1568913 2.3168077 0.41410464 3 -1
3.153625 2.3366435 0.4210692 3 -1
3.1504171 2.3667219 0.38927615 3 -1
3.1328893 2.4190412 0.39338011 3 -1
3.0823922 2.4382346 0.38241416 3 -1
3.0803123 2.4566545 0.38637209 3 -1
3.0799849 2.5086627 0.392744 3 -1
3.0448935 2.5468762 0.38819718 3 -1
3.0149956 2.5813041 0.38484514 3 -1
2.9817739 2.6586361 0.36886227 3 -1
2.8806591 2.7294014 0.35322338 3 -1
0.65201163 4.22227 0.12657115 1 -1
0.71967244 4.2898293 0.1424942 1 -1
0.7818141 4.3849645 0.1310887 1 -1
1.2826176 4.1534572 0.19537473 3 -1
1.5577502 4.0501728 0.2070899 3 -1
1.7163203 4.0321889 0.22338091 3 -1
1.8508768 4.0490255 0.23852344 3 -1
1.9607713 4.0891352 0.23246117 3 -1
2.0428724 4.0943484 0.25833488 3 -1
2.1390755 4.1082034 0.22695987 3 -1
2.2116046 4.1702738 0.23762356 3 -1
2.2710004 4.1955605 0.25749415 3 -1
2.333169 4.2527227 0.23592569 3 -1
2.4151163 4.2877889 0.2554515 3 -1
2.4893811 4.348783 0.23147525 3 -1
2.5227804 4.3978977 0.23571604 3 -1
2.5659356 4.4969316 0.24362679 3 -1
2.629838 4.5703096 0.22745287 3 -1
2.6733856 4.6688142 0.24879287 3 -1
2.7097349 4.7810116 0.21856338 3 -1
2.7373862 4.9490247 0.21688184 3 -1
2.7417645 5.1859722 0.19670922 3 -1
2.6409228 5.7547936 0.13771233 1 -1
2.767899 5.8019509 0.14184055 1 -1
2.8869462 5.8348389 0.14549601 1 -1
2.9824829 5.8587193 0.15083387 1 -1
3.091012 5.872901 0.14873722 1 -1
3.2137961 5.9290996 0.13641259 1 -1
3.3291123 5.9386616 0.13880345 1 -1
3.4513268 5.9509039 0.14954069 1 -1
3.7644255 3.7236404 0.32422775 3 -1
3.8353133 3.5651021 0.34125587 3 -1
3.86713 3.4640093 0.36971736 3 -1
3.9266989 3.4061265 0.365475 3 -1
3.9473937 3.3578978 0.36310011 3 -1
3.9928756 3.3184848 0.36328453 3 -1
4.0443716 3.30018 0.3701672 3 -1
4.0504975 3.244966 0.35832101 3 -1
4.0871363 3.2310193 0.3873173 3 -1
4.1005545 3.2066517 0.38841099 3 -1
4.145977 3.1915741 0.3835718 3 -1
4.1612272 3.1689134 0.37447768 3 -1
4.2145505 3.1488876 0.3977285 3 -1
4.2228479 3.1250596 0.38003206 3 -1
4.2597289 3.1149187 0.38459885 3 -1
4.2857413 3.1076496 0.37826949 3 -1
4.3248115 3.0857444 0.37780219 3 -1
4.3504572 3.072665 0.37632757 3 -1
4.3705101 3.0457363 0.37759465 3 -1
4.4020443 3.0497293 0.38548636 3 -1
4.4293761 3.0339825 0.37610638 3 -1
4.4579644 3.0285447 0.37831789 3 -1
3.1883512 2.1401181 0.41064101 3 -1
3.1859257 2.1605096 0.42658663 3 -1
3.1938334 2.2042904 0.42137992 3 -1
3.1821198 2.2167962 0.44340748 3 -1
3.180119 2.2445116 0.42993689 3 -1
3.1664267 2.2613752 0.44043881 3 -1
3.1553159 2.2807565 0.41749841 3 -1
3.1605098 2.3124459 0.40674794 3 -1
3.1475561 2.3358531 0.41796428 3 -1
3.1422269 2.3613598 0.41285843 3 -1
3.1231086 2.395412 0.40678722 3 -1
3.0991778 2.4291263 0.39980602 3 -1
3.08426 2.4537268 0.40713608 3 -1
3.0725858 2.4909647 0.40267289 3 -1
3.0505338 2.5454347 0.41183996 3 -1
3.0148821 2.6044345 0.40775156 3 -1
2.9760742 2.6570539 0.3993721 3 -1
2.9132295 2.7479088 0.38889849 3 -1
0.13274407 4.51791 0.1870729 2 -1
0.15406632 4.6765089 0.17584953 2 -1
0.12936306 4.8714237 0.17787194 2 -1
1.2909083 4.151134 0.25289583 3 -1
1.574317 4.0624452 0.30323699 3 -1
1.7320745 4.0671577 0.2783559 3 -1
1.8514555 4.0499187 0.30179763 3 -1
1.9431231 4.0551353 0.30668062 3 -1
2.0644453 4.0775261 0.31522143 3 -1
2.1274672 4.1177087 0.3024621 3 -1
2.2207732 4.1611276 0.30093431 3 -1
2.2923326 4.2103262 0.28564599 3 -1
2.3388538 4.2489176 0.29197845 3 -1
2.4058144 4.297276 0.30305773 3 -1
2.4746222 4.3543973 0.28764144 3 -1
2.5273876 4.4184289 0.30263677 3 -1
2.586015 4.5044603 0.29499763 3 -1
2.6199212 4.579586 0.29636961 3 -1
2.674356 4.6523304 0.28714791 3 -1
2.7229373 4.766881 0.28943995 3 -1
2.7354863 4.9155369 0.27097809 3 -1
2.7388003 5.2181005 0.25433302 3 -1
2.2662215 6.7812862 0.16122729 1 -1
2.4200573 6.849925 0.14679852 1 -1
2.5687191 6.8958883 0.15640676 1 -1
2.7208636 6.9245567 0.14299607 1 -1
2.8704333 6.9583778 0.17293742 1 -1
3.0019033 6.9860983 0.15916786 1 -1
3.1517611 7.0330057 0.16167319 1 -1
3.3521621 6.631875 0.18250462 3 -1
3.7764826 3.7074866 0.37150133 3 -1
3.8382635 3.5862489 0.37937558 3 -1
3.8779159 3.48141 0.38535225 3 -1
3.9119232 3.4118345 0.38049036 3 -1
3.9586658 3.348381 0.39466876 3 -1
3.9879484 3.3228483 0.39208448 3 -1
4.0268612 3.3034329 0.40531605 3 -1
4.0560746 3.24441 0.39877963 3 -1
4.0974016 3.2313676 0.39300328 3 -1
4.1281867 3.1933665 0.40432835 3 -1
4.1690092 3.1859362 0.37618488 3 -1
4.1773548 3.1704319 0.40174544 3 -1
4.2125058 3.1393051 0.41405141 3 -1
4.2573833 3.1207795 0.4007135 3 -1
4.2538266 3.1235845 0.39692199 3 -1
4.3073645 3.109344 0.40159798 3 -1
4.3289881 3.0875578 0.42007959 3 -1
4.3291054 3.0674405 0.40096021 3 -1
4.3722935 3.0479646 0.39530843 3 -1
4.4127316 3.0384703 0.3947978 3 -1
4.4326839 3.0454898 0.40857351 3 -1
4.4589591 3.0267253 0.40681487 3 -1
3.1967564 2.1472566 0.44041055 3 -1
3.1776907 2.1682236 0.44187707 3 -1
3.1806016 2.1758761 0.45348459 3 -1
3.171875 2.2088475 0.44648129 3 -1
3.1713326 2.2356319 0.43771058 3 -1
3.1576514 2.263767 0.44962895 3 -1
3.1671073 2.2937655 0.44658309 3 -1
3.1447935 2.3111038 0.42401403 3 -1
3.1539464 2.35026 0.45316923 3 -1
3.138289 2.3667946 0.42465645 3 -1
3.1071861 2.384268 0.45831919 3 -1
3.0963247 2.430361 0.41806871 3 -1
3.098485 2.4690986 0.43897367 3 -1
3.0707235 2.5102329 0.43053997 3 -1
3.0535438 2.5576231 0.41521811 3 -1
3.0345478 2.5934241 0.42065895 3 -1
2.9845381 2.6525269 0.41282237 3 -1
2.9215231 2.7248821 0.41913009 3 -1
0.14320922 4.5118113 0.29448575 2 -1
0.15123177 4.6976447 0.28938988 2 -1
0.13056755 4.8716364 0.2892468 2 -1
1.3039923 4.1610765 0.33457711 3 -1
1.5798783 4.0726414 0.33879083 3 -1
1.7158558 4.0465903 0.3580513 3 -1
1.8471408 4.0543766 0.33502358 3 -1
1.9367723 4.051281 0.36225945 3 -1
2.0623591 4.0953503 0.35423958 3 -1
2.136776 4.1301966 0.3515048 3 -1
2.2292991 4.1698008 0.34063011 3 -1
2.2854626 4.2158537 0.3525368 3 -1
2.3418651 4.243608 0.36703378 3 -1
2.4139698 4.2809095 0.36743265 3 -1
2.4877527 4.3569341 0.35185808 3 -1
2.5257201 4.406703 0.36841559 3 -1
2.5943065 4.4705524 0.35227668 3 -1
2.6369524 4.5548716 0.36784172 3 -1
2.6748581 4.6814852 0.33577091 3 -1
2.7064862 4.7764711 0.35941404 3 -1
2.754329 4.9441061 0.34932825 3 -1
2.7508333 5.2021775 0.33758238 3 -1
2.0079975 7.574254 0.22925064 3 -1
2.1699836 7.6176815 0.22971477 3 -1
2.3481269 7.6992846 0.22798671 3 -1
2.482142 7.8286009 0.20950952 3 -1
2.6510439 7.9615049 0.20857352 3 -1
3.3492832 6.6467857 0.28137916 3 -1
3.7695131 3.7181268 0.40300459 3 -1
3.8321757 3.5827379 0.42649347 3 -1
3.8836491 3.4622352 0.4250254 3 -1
3.9164174 3.4206772 0.41457069 3 -1
3.9503539 3.3564224 0.42674649 3 -1
3.9887843 3.3107448 0.41693252 3 -1
4.0215592 3.2721446 0.42095441 3 -1
4.0640717 3.2551227 0.42530614 3 -1
4.0931783 3.2217412 0.41158009 3 -1
4.1264191 3.2212667 0.42330509 3 -1
4.1569519 3.1822491 0.4117853 3 -1
4.1727843 3.1637907 0.42107058 3 -1
4.1910591 3.1375141 0.41757619 3 -1
4.2480488 3.1100769 0.40698588 3 -1
4.2722073 3.1186192 0.425219 3 -1
4.2859945 3.0986414 0.42292291 3 -1
4.3180022 3.0795932 0.40854567 3 -1
4.3280163 3.0620742 0.42837614 3 -1
4.3739038 3.0782585 0.43214333 3 -1
4.416256 3.0383253 0.43651038 3 -1
4.4453597 3.0378766 0.42982292 3 -1
4.4547958 3.0417879 0.41948599 3 -1
3.204798 2.1366827 0.44867277 3 -1
3.1888659 2.1733294 0.44404107 3 -1
3.194453 2.1801472 0.4484145 3 -1
3.1766918 2.2275531 0.44677979 3 -1
3.1563931 2.2403743 0.44415641 3 -1
3.1740587 2.2481236 0.45993167 3 -1
3.1524513 2.2883673 0.47414947 3 -1
3.1383238 2.3155293 0.45643961 3 -1
3.1596949 2.3352532 0.45834255 3 -1
3.1449716 2.3752048 0.46406245 3 -1
3.1196489 2.3958383 0.43857259 3 -1
3.1140277 2.4384673 0.45338339 3 -1
3.091553 2.4588499 0.46237099 3 -1
3.0728996 2.4996722 0.46505725 3 -1
3.0503526 2.5248716 0.45863605 3 -1
3.0137331 2.5797844 0.45690793 3 -1
2.9778845 2.6464586 0.43429595 3 -1
2.9065623 2.7362492 0.44012249 3 -1
0.14868784 4.5199027 0.38111877 2 -1
0.14402652 4.6861553 0.36997706 2 -1
0.15069652 4.8609338 0.37872583 2 -1
1.2824852 4.1663589 0.37901324 3 -1
1.5760372 4.046659 0.40470618 3 -1
1.7392912 4.0498228 0.40555137 3 -1
1.8508437 4.0513682 0.41399395 3 -1
1.9644907 4.0531335 0.4002766 3 -1
2.0333948 4.090126 0.40720505 3 -1
2.1264875 4.1220798 0.43192279 3 -1
2.2089629 4.1507444 0.41699129 3 -1
2.3033967 4.209219 0.40018713 3 -1
2.3349168 4.2721548 0.41560203 3 -1
2.4065833 4.2750306 0.41703022 3 -1
2.466311 4.342886 0.41854215 3 -1
2.5366545 4.4095736 0.42332721 3 -1
2.5614221 4.487648 0.40361297 3 -1
2.6384902 4.554903 0.3902151 3 -1
2.6712482 4.6459637 0.40835506 3 -1
2.7109022 4.7614737 0.40744406 3 -1
2.730155 4.9372802 0.43302912 3 -1
2.7506411 5.2042799 0.39852703 3 -1
2.0161827 7.5587187 0.35892248 3 -1
2.1780849 7.6109304 0.34906471 3 -1
2.3371265 7.6857224 0.34414336 3 -1
2.4868627 7.8048067 0.34173483 3 -1
2.6588283 7.9757814 0.34986097 3 -1
3.3558378 6.6266384 0.3898977 3 -1
3.7634451 3.7422967 0.4200322 3 -1
3.8434319 3.569684 0.44347239 3 -1
3.87433 3.4733176 0.44833755 3 -1
3.9319067 3.41872 0.44439727 3 -1
3.9495988 3.368145 0.45677578 3 -1
3.9721296 3.3197348 0.43404865 3 -1
4.0197349 3.285929 0.44819993 3 -1
4.0634356 3.2431545 0.43878442 3 -1
4.0774841 3.2436793 0.44063187 3 -1
4.1210957 3.1831565 0.43614817 3 -1
4.1403146 3.1787324 0.45583093 3 -1
4.1935582 3.1533256 0.45404714 3 -1
4.2059774 3.1309736 0.43623847 3 -1
4.2408099 3.1355028 0.42262965 3 -1
4.2666302 3.0986633 0.4452402 3 -1
4.2685494 3.0954874 0.43881291 3 -1
4.3312922 3.0790839 0.44406652 3 -1
4.3278699 3.0714698 0.46116191 3 -1
4.3778729 3.0563726 0.42753088 3 -1
4.3947697 3.0427201 0.4511404 3 -1
4.4362087 3.0524981 0.42874551 3 -1
4.4530306 3.0307612 0.45016259 3 -1
3.1886456 2.1354651 0.47901493 3 -1
3.2140007 2.1588671 0.49280453 3 -1
3.1698127 2.1800449 0.47158128 3 -1
3.1854012 2.212348 0.44814265 3 -1
3.1907623 2.2383852 0.44541717 3 -1
3.1522753 2.2559767 0.48224247 3 -1
3.1585035 2.2976494 0.46136367 3 -1
3.1704865 2.3140788 0.45997292 3 -1
3.1377618 2.3259492 0.47031236 3 -1
3.1398611 2.3778317 0.47767758 3 -1
3.1380339 2.4084282 0.47324282 3 -1
3.0946338 2.4432249 0.47008955 3 -1
3.0821424 2.4526296 0.4580816 3 -1
3.0889292 2.4819722 0.49786955 3 -1
3.0451005 2.5548365 0.47241372 3 -1
3.0227954 2.5988867 0.47159302 3 -1
2.9936781 2.6410825 0.46038985 3 -1
2.8942094 2.72365 0.45354629 3 -1
0.13777804 4.5243635 0.46495777 2 -1
0.14651847 4.6948762 0.47920877 2 -1
0.14022613 4.8719349 0.47345263 2 -1
1.2901967 4.1505518 0.4644112 3 -1
1.5552003 4.0529399 0.45368952 3 -1
1.7431173 4.040904 0.47075504 3 -1
1.8510284 4.0636315 0.46948504 3 -1
1.9317758 4.0493908 0.46642411 3 -1
2.0594788 4.0761623 0.46964025 3 -1
2.1466722 4.1118898 0.46609473 3 -1
2.2245398 4.1787415 0.49699646 3 -1
2.2952662 4.1984677 0.4767676 3 -1
2.3240235 4.2419786 0.46304667 3 -1
2.4035263 4.2888355 0.46831548 3 -1
2.4674201 4.33918 0.48616511 3 -1
2.5201879 4.4096026 0.46225643 3 -1
2.5663018 4.4729633 0.47036201 3 -1
2.6312709 4.5667162 0.4710753 3 -1
2.6954484 4.6680751 0.48183221 3 -1
2.7101822 4.7811117 0.46578771 3 -1
2.7438614 4.9229965 0.49076551 3 -1
2.7581029 5.1945348 0.47385961 3 -1
2.0203204 7.5506401 0.48797154 3 -1
2.172874 7.6118374 0.46570462 3 -1
2.3371243 7.6880875 0.47431833 3 -1
2.4975941 7.8250332 0.47511601 3 -1
2.6281464 7.9819479 0.47180325 3 -1
3.3646343 6.6564274 0.47461307 3 -1
3.7553461 3.7127481 0.4641583 3 -1
3.8205042 3.558485 0.46208799 3 -1
3.8717847 3.482542 0.47621 3 -1
3.9262245 3.4287443 0.47695524 3 -1
3.9493468 3.3551309 0.46724188 3 -1
3.989819 3.3351996 0.48380607 3 -1
4.0122957 3.2722325 0.46639943 3 -1
4.0421896 3.2782168 0.45852029 3 -1
4.0938301 3.2206678 0.45660728 3 -1
4.1196556 3.1935759 0.47784418 3 -1
4.1575766 3.1876519 0.46482199 3 -1
4.1739407 3.1479287 0.46287853 3 -1
4.2069402 3.1305828 0.4757688 3 -1
4.2321119 3.0954089 0.45138007 3 -1
4.2568326 3.1077361 0.47423911 3 -1
4.2883735 3.1045403 0.45377737 3 -1
4.3199096 3.0838869 0.4860031 3 -1
4.3521447 3.0709114 0.45359594 3 -1
4.3716993 3.0459495 0.47528309 3 -1
4.3999157 3.0461278 0.45330721 3 -1
4.4416213 3.0354176 0.46374756 3 -1
4.4442921 3.0372777 0.46399146 3 -1
3.1855683 2.1317618 0.48985004 3 -1
3.2024603 2.17998 0.49434251 3 -1
3.1863165 2.1828413 0.48129863 3 -1
3.1800809 2.2121229 0.50200093 3 -1
3.1516566 2.220063 0.48660135 3 -1
3.162163 2.2746522 0.49402505 3 -1
3.1671281 2.2958846 0.4820177 3 -1
3.1754956 2.3222051 0.48983127 3 -1
3.1268799 2.32481 0.48538387 3 -1
3.1234436 2.3645148 0.49933898 3 -1
3.136627 2.4061472 0.51727027 3 -1
3.1082778 2.4274919 0.49535269 3 -1
3.085072 2.4715054 0.48724073 3 -1
3.0810649 2.50737 0.48428166 3 -1
3.0467196 2.5442631 0.48549098 3 -1
3.0074682 2.5940804 0.48720217 3 -1
2.9903255 2.649323 0.48654932 3 -1
2.9088125 2.732496 0.49902564 3 -1
0.1381104 4.5224633 0.57029325 2 -1
0.14981222 4.6883564 0.57258254 2 -1
0.14289665 4.8489194 0.56716669 2 -1
1.2899411 4.1638112 0.53258091 3 -1
1.5595396 4.0446472 0.5442853 3 -1
1.7483397 4.0438104 0.53206474 3 -1
1.8502073 4.0519547 0.51732475 3 -1
1.951107 4.0587192 0.52739829 3 -1
2.0517349 4.1004381 0.53587437 3 -1
