# .PCD v0.7 - Point Cloud Data file format
VERSION 0.7
FIELDS x y z label
SIZE 4 4 4 4
TYPE F F F U
COUNT 1 1 1 1
WIDTH 1333
HEIGHT 1
VIEWPOINT 2.3 6.99998 0.099766 1 0 0 0
POINTS 1333
DATA ascii
2.2346036 7.6489115 0.42897189 3 -1
2.2652662 7.6659632 0.42367935 3 -1
2.2650115 7.6704316 0.4360413 3 -1
2.3131523 7.6903772 0.43467307 3 -1
2.2962744 7.7188792 0.43101209 3 -1
2.3312771 7.7166481 0.42383778 3 -1
2.3548882 7.726315 0.44403183 3 -1
2.3768284 7.7586813 0.42564601 3 -1
2.4043539 7.8013697 0.40892422 3 -1
2.4199736 7.8064747 0.44748098 3 -1
2.4721153 7.8245244 0.42484838 3 -1
2.542779 7.9077215 0.42111439 3 -1
2.5731297 7.9950314 0.40517914 3 -1
3.5592856 10.067598 0.28169489 2 -1
3.657033 10.076245 0.26138711 2 -1
3.7666333 10.071968 0.23551829 2 -1
3.8723953 10.069586 0.24468237 2 -1
3.9535227 10.085787 0.25285146 2 -1
0.092163563 7.1812606 0.39472622 2 -1
0.10708165 7.2618675 0.37466854 2 -1
0.081978798 7.2962584 0.40633023 2 -1
0.11670375 7.3708267 0.3880409 2 -1
0.1074543 7.4150672 0.37956059 2 -1
0.090356588 7.4907055 0.39913875 2 -1
0.096265078 7.5590911 0.37023437 2 -1
0.12033415 7.6243877 0.3842209 2 -1
0.12078166 7.6981964 0.3948772 2 -1
0.11322403 7.7595005 0.38117689 2 -1
0.073771954 7.8182812 0.37055999 2 -1
0.10845256 7.9027672 0.36572587 2 -1
0.10349107 7.9961977 0.37732184 2 -1
0.12520766 8.0588017 0.37995487 2 -1
0.11708283 8.1199932 0.37350869 2 -1
0.1126163 8.2216377 0.3756277 2 -1
1.4900842 7.5465231 0.44833636 3 -1
1.5550454 7.5037122 0.4358995 3 -1
1.6181269 7.5105085 0.44284087 3 -1
1.6676853 7.5315228 0.44311148 3 -1
1.702512 7.5145011 0.43773192 3 -1
1.7145131 7.5125132 0.43829262 3 -1
1.75116 7.5147743 0.42244703 3 -1
1.8021041 7.5119085 0.44928735 3 -1
1.8156828 7.5109081 0.45015848 3 -1
1.8386743 7.5086565 0.43974864 3 -1
1.8494935 7.5264969 0.44830579 3 -1
1.8798881 7.5033493 0.45168746 3 -1
1.8866161 7.5258508 0.46205294 3 -1
1.9029224 7.5298643 0.44743639 3 -1
1.9157059 7.5354686 0.45763314 3 -1
1.9318739 7.531476 0.451895 3 -1
1.9630749 7.5435538 0.44452763 3 -1
1.975754 7.5446029 0.45355856 3 -1
1.982653 7.5652471 0.46114284 3 -1
1.992375 7.5611234 0.4498924 3 -1
2.0027864 7.5759077 0.4530279 3 -1
2.0269334 7.5573463 0.46114582 3 -1
2.0554461 7.5597806 0.45178324 3 -1
2.0563648 7.568933 0.44779199 3 -1
2.0877728 7.5583496 0.44572383 3 -1
2.0832663 7.5904865 0.4462781 3 -1
2.1020615 7.5843692 0.44510591 3 -1
2.0941176 7.5962543 0.44736212 3 -1
2.1006258 7.5943727 0.43044633 3 -1
2.1334171 7.5969362 0.44946474 3 -1
2.1319239 7.6281104 0.43184131 3 -1
2.1650622 7.6182427 0.44995058 3 -1
2.1493001 7.6183786 0.46287274 3 -1
2.1845245 7.6248922 0.45559877 3 -1
2.2171693 7.628653 0.43818724 3 -1
2.236095 7.6482377 0.45287734 3 -1
2.2382951 7.638648 0.45239425 3 -1
2.2510419 7.6769252 0.44061929 3 -1
2.2769783 7.670804 0.45456457 3 -1
2.2786846 7.6857619 0.43867493 3 -1
2.3085639 7.7072387 0.438694 3 -1
2.3319912 7.7049804 0.45445794 3 -1
2.3467546 7.7291689 0.44833976 3 -1
2.3867664 7.7672319 0.41474962 3 -1
2.4180076 7.7670064 0.44067091 3 -1
2.4298627 7.7972946 0.43868166 3 -1
2.4742398 7.8395982 0.44079638 3 -1
2.53562 7.9083462 0.42209625 3 -1
2.5856047 8.0053625 0.43671447 3 -1
3.5327649 10.074525 0.31987858 2 -1
3.6565881 10.089818 0.32866567 2 -1
3.7553463 10.085363 0.34400684 2 -1
3.8812318 10.076448 0.33592176 2 -1
3.9657121 10.101631 0.32573932 2 -1
0.09410882 7.1873727 0.42789555 2 -1
0.10873699 7.233089 0.41143852 2 -1
0.10335112 7.3057251 0.41755277 2 -1
0.10069466 7.3584375 0.42412794 2 -1
0.10529661 7.4497266 0.42072564 2 -1
0.10502911 7.489284 0.42576414 2 -1
0.11465621 7.5602989 0.43218768 2 -1
0.10330796 7.6278863 0.40820968 2 -1
0.10202932 7.7160397 0.42497736 2 -1
0.1123755 7.7631044 0.43725801 2 -1
0.12353992 7.849762 0.42768681 2 -1
0.10841942 7.9090476 0.43594897 2 -1
0.103374 7.9832888 0.44178206 2 -1
0.12215185 8.0334187 0.39507616 2 -1
0.11837888 8.1429615 0.4129824 2 -1
0.11218262 8.2191486 0.42115074 2 -1
1.4729588 7.5460277 0.44367909 3 -1
1.5367017 7.5259376 0.46368265 3 -1
1.5976139 7.5195713 0.45374554 3 -1
1.6670032 7.5137239 0.46098906 3 -1
1.6887975 7.4971819 0.46755183 3 -1
1.7288594 7.5075521 0.4545663 3 -1
1.732744 7.5170321 0.45312172 3 -1
1.7798501 7.5092649 0.44779193 3 -1
1.8142475 7.530911 0.46944726 3 -1
1.8369454 7.5195551 0.46493304 3 -1
1.8464539 7.5071764 0.46243346 3 -1
1.8726256 7.5159383 0.47002494 3 -1
1.8868009 7.5373487 0.45058435 3 -1
1.9087553 7.517405 0.47599852 3 -1
1.9201716 7.5157042 0.46736497 3 -1
1.9289124 7.5331273 0.44761419 3 -1
1.94883 7.5308723 0.46067637 3 -1
1.9739614 7.5473404 0.46552747 3 -1
1.9712594 7.5512886 0.47230566 3 -1
2.0056603 7.5329132 0.46786129 3 -1
2.0236754 7.5524492 0.46233749 3 -1
2.0309131 7.5584965 0.45507443 3 -1
2.0505583 7.5716763 0.46976966 3 -1
2.0338385 7.5724964 0.45206815 3 -1
2.0560648 7.5625038 0.45590156 3 -1
2.0931807 7.5712824 0.46195668 3 -1
2.0954475 7.5782628 0.43467927 3 -1
2.1115022 7.5952067 0.46115631 3 -1
2.1334691 7.5920491 0.46373743 3 -1
2.124625 7.5954671 0.46103966 3 -1
2.1583395 7.6108775 0.4659375 3 -1
2.1596932 7.6181407 0.47038472 3 -1
2.176065 7.6164899 0.43246275 3 -1
2.1921606 7.6272898 0.43841606 3 -1
2.2082524 7.6188273 0.45968747 3 -1
2.222214 7.6551046 0.46872634 3 -1
2.243346 7.6610985 0.46709907 3 -1
2.2675686 7.6563568 0.45819765 3 -1
2.2791176 7.6853504 0.44791585 3 -1
2.2689517 7.6951466 0.46526283 3 -1
2.3031185 7.6918573 0.45850867 3 -1
2.3355453 7.6995621 0.46167672 3 -1
2.3277225 7.7428808 0.44191033 3 -1
2.3697371 7.749979 0.47276837 3 -1
2.4133964 7.7936006 0.45345813 3 -1
2.4417443 7.7925496 0.44685996 3 -1
2.4817755 7.8495703 0.44928604 3 -1
2.5185328 7.9048114 0.4449876 3 -1
2.5844176 8.0036545 0.44566751 3 -1
3.5569711 10.099224 0.4067902 2 -1
3.6469927 10.071815 0.39530265 2 -1
3.7688994 10.071761 0.40473628 2 -1
3.8973761 10.084879 0.39996868 2 -1
3.9593024 10.103462 0.38921893 2 -1
0.092717171 7.1813297 0.48973006 2 -1
0.096888065 7.2303858 0.4465279 2 -1
0.10219455 7.3021898 0.46045864 2 -1
0.087655544 7.3596773 0.45151842 2 -1
0.10475898 7.4243803 0.47199577 2 -1
0.10997987 7.4999967 0.47779828 2 -1
0.12346601 7.553916 0.46583122 2 -1
0.11274981 7.6265459 0.46923572 2 -1
0.11680651 7.6964655 0.4704634 2 -1
0.11161399 7.7832799 0.47502601 2 -1
0.10747361 7.8422279 0.44625658 2 -1
0.1154263 7.9146061 0.46633822 2 -1
0.12412667 8.0037031 0.48490757 2 -1
0.11129141 8.063611 0.46399391 2 -1
0.11648893 8.131382 0.48734111 2 -1
0.12121892 8.1957951 0.46607167 2 -1
1.4800687 7.5454903 0.46458137 3 -1
1.5506592 7.519362 0.46385908 3 -1
1.5950953 7.5176425 0.47998708 3 -1
1.6573476 7.5150161 0.47362775 3 -1
1.6933606 7.5017033 0.458332 3 -1
1.7277365 7.5017653 0.45885539 3 -1
1.7649601 7.5225801 0.48262793 3 -1
1.7802999 7.5138559 0.48158973 3 -1
1.8220153 7.5249949 0.46808946 3 -1
1.8374789 7.5310202 0.47024029 3 -1
1.8734176 7.5409379 0.46617639 3 -1
1.8653469 7.5062475 0.47173679 3 -1
1.9062028 7.5182962 0.46845669 3 -1
1.9083382 7.5282927 0.48138362 3 -1
1.9312029 7.5239635 0.47495639 3 -1
1.9475615 7.5365605 0.46266168 3 -1
1.9447634 7.5453167 0.46955699 3 -1
1.9593526 7.5355434 0.45286447 3 -1
1.9935079 7.562592 0.48814571 3 -1
2.0007601 7.54637 0.48109496 3 -1
2.0088427 7.5664115 0.47544825 3 -1
2.0360622 7.5648708 0.49283046 3 -1
2.0302372 7.5613198 0.47476745 3 -1
2.0676305 7.5641322 0.46750832 3 -1
2.0719602 7.5676374 0.48029941 3 -1
2.0757425 7.5794063 0.46139234 3 -1
2.100956 7.5834618 0.46738476 3 -1
2.1024013 7.5917659 0.48270899 3 -1
2.1155157 7.5881643 0.44858938 3 -1
2.1489997 7.5883212 0.47932827 3 -1
2.1511581 7.6176167 0.45844448 3 -1
2.1638668 7.5955367 0.4887681 3 -1
2.1785765 7.6126804 0.48497128 3 -1
2.194875 7.6054506 0.46630937 3 -1
2.1888533 7.6375427 0.46959835 3 -1
2.2149856 7.6512403 0.48037225 3 -1
2.2469804 7.6628385 0.46325266 3 -1
2.2382965 7.6688185 0.47054201 3 -1
2.2659822 7.6832685 0.46658081 3 -1
2.2880363 7.6708016 0.46858609 3 -1
2.3093896 7.6975513 0.4779312 3 -1
2.3287342 7.7022991 0.46847969 3 -1
2.3733528 7.7146959 0.46594977 3 -1
2.3680861 7.7374525 0.48095268 3 -1
2.3980999 7.7977767 0.46219039 3 -1
2.4349489 7.7992973 0.47769427 3 -1
2.4668038 7.8362713 0.46364295 3 -1
2.5216291 7.9141145 0.46627456 3 -1
2.5726185 7.9852843 0.47934884 3 -1
3.5629349 10.065689 0.47084618 2 -1
3.642066 10.063456 0.46424198 2 -1
3.7853951 10.067424 0.4763974 2 -1
3.8787923 10.065256 0.47954798 2 -1
3.9532614 10.098083 0.45203531 2 -1
0.098785162 7.183835 0.53841096 2 -1
0.11015177 7.2367015 0.52191228 2 -1
0.11476183 7.3128452 0.53385419 2 -1
0.10745931 7.350235 0.52906352 2 -1
0.10451102 7.4161234 0.51806903 2 -1
0.11682439 7.4848552 0.51670015 2 -1
0.097430468 7.5562086 0.52298957 2 -1
0.11550498 7.6189346 0.52158833 2 -1
0.10938025 7.6927128 0.51223308 2 -1
0.12188077 7.7554021 0.51868892 2 -1
0.12239456 7.8277216 0.52838939 2 -1
0.11767006 7.9351482 0.51720005 2 -1
0.11156583 8.0007906 0.51627666 2 -1
0.12948203 8.0477037 0.51356965 2 -1
0.11332107 8.1412544 0.52340096 2 -1
0.13068295 8.2109776 0.5143429 2 -1
1.4747334 7.542522 0.49549967 3 -1
1.5770049 7.5141325 0.47657907 3 -1
1.6221933 7.4952054 0.46943396 3 -1
1.6451955 7.5247998 0.48619783 3 -1
1.7036693 7.5302548 0.47975624 3 -1
1.7327421 7.5052409 0.49190009 3 -1
1.7402549 7.5125875 0.50242841 3 -1
1.7793503 7.52457 0.48897099 3 -1
1.8216491 7.5196686 0.48843199 3 -1
1.840533 7.515389 0.46993631 3 -1
1.8557764 7.5241961 0.46801943 3 -1
1.8753364 7.5214958 0.46878552 3 -1
1.8822507 7.535059 0.48748004 3 -1
1.922631 7.5220337 0.46335512 3 -1
1.933533 7.5465455 0.47699702 3 -1
1.9445471 7.5341558 0.48538899 3 -1
1.9583442 7.539618 0.48053038 3 -1
1.9737053 7.544879 0.48801637 3 -1
1.9784409 7.5362854 0.47216487 3 -1
1.9953234 7.5527596 0.48145276 3 -1
2.016257 7.5430946 0.48096967 3 -1
2.0237806 7.5588479 0.46587282 3 -1
2.0513322 7.5515757 0.47671652 3 -1
2.0592206 7.5648074 0.47506589 3 -1
2.0705981 7.574214 0.49205798 3 -1
2.0804131 7.5594711 0.486808 3 -1
2.0907516 7.5849824 0.48717523 3 -1
2.1124165 7.6094069 0.46543318 3 -1
2.1265082 7.582284 0.48350787 3 -1
2.132102 7.5971327 0.48501229 3 -1
2.159399 7.6214447 0.48883319 3 -1
2.166326 7.6088018 0.47220069 3 -1
2.1757028 7.6215892 0.47071254 3 -1
2.1993279 7.6202588 0.48872626 3 -1
2.1990991 7.6384425 0.46845073 3 -1
2.2119555 7.6466098 0.44908386 3 -1
2.2395871 7.6573453 0.48724478 3 -1
2.244452 7.6574793 0.47417086 3 -1
2.2757215 7.6752996 0.48351645 3 -1
2.2772641 7.6880884 0.47908974 3 -1
2.3099873 7.7058229 0.47867787 3 -1
2.3372982 7.7199364 0.49808937 3 -1
2.3590415 7.7390714 0.48677188 3 -1
2.3800354 7.7724857 0.47298265 3 -1
2.4020228 7.7881913 0.47456855 3 -1
2.428977 7.8092451 0.48951787 3 -1
2.4726248 7.8394547 0.50075227 3 -1
2.5245738 7.9051518 0.47901118 3 -1
2.5614171 8.0004921 0.49496305 3 -1
3.5389824 10.068908 0.54102629 2 -1
3.6589622 10.066967 0.53593475 2 -1
3.7575877 10.070835 0.53040719 2 -1
3.8734026 10.05724 0.53501946 2 -1
3.9688444 10.079409 0.54371208 2 -1
0.094962358 7.1528597 0.54337418 2 -1
0.1027019 7.2314425 0.54749554 2 -1
0.089051008 7.3050132 0.57040584 2 -1
0.12100697 7.3449578 0.56329089 2 -1
0.11628747 7.414063 0.55041921 2 -1
0.1012702 7.502162 0.57079291 2 -1
0.13136935 7.5634112 0.56247336 2 -1
0.11004353 7.6361699 0.55455977 2 -1
0.11546326 7.6921644 0.57200718 2 -1
0.098011971 7.7578182 0.57046998 2 -1
0.10662055 7.8363032 0.56777012 2 -1
0.13060808 7.9079151 0.58300012 2 -1
0.12649775 7.9752717 0.54759192 2 -1
0.10245442 8.0640841 0.56043363 2 -1
0.11512494 8.1280384 0.56977504 2 -1
0.10418487 8.2178793 0.57324994 2 -1
1.4823153 7.5532408 0.50327629 3 -1
1.5671467 7.5087919 0.49641556 3 -1
1.6229572 7.5079904 0.48823333 3 -1
1.6514375 7.5151782 0.51138771 3 -1
1.7192192 7.5075369 0.49889362 3 -1
1.7384757 7.5072517 0.48252308 3 -1
1.7678251 7.5071888 0.5061115 3 -1
1.7958992 7.5111051 0.4963277 3 -1
1.807472 7.4819918 0.47916704 3 -1
1.8184754 7.5289555 0.49283385 3 -1
1.859669 7.5371885 0.48744935 3 -1
1.868999 7.5253739 0.49167234 3 -1
1.9043149 7.5322127 0.50051832 3 -1
1.9026121 7.520421 0.48459989 3 -1
1.9286318 7.5294309 0.48247951 3 -1
1.9556918 7.5529423 0.50147653 3 -1
1.9742167 7.5422373 0.4922182 3 -1
1.9749906 7.5407104 0.48219657 3 -1
1.9847261 7.5315495 0.48871177 3 -1
1.991311 7.5483761 0.48863071 3 -1
2.006948 7.5400028 0.49366325 3 -1
2.0279372 7.5423288 0.50066346 3 -1
2.0628986 7.5467391 0.49954242 3 -1
2.0629375 7.574873 0.47876215 3 -1
2.0849295 7.5760074 0.48409456 3 -1
2.0671735 7.5756998 0.47854406 3 -1
2.1080339 7.5783334 0.49177241 3 -1
2.1227663 7.5910125 0.49760258 3 -1
2.1127212 7.5909538 0.48127902 3 -1
2.137229 7.6014023 0.48251969 3 -1
2.1446157 7.6164737 0.48813206 3 -1
2.1601286 7.6254573 0.49663806 3 -1
2.1778972 7.622982 0.46572244 3 -1
2.1665068 7.6319017 0.48816091 3 -1
2.2006991 7.6311684 0.4881267 3 -1
2.2067041 7.654789 0.49199128 3 -1
2.2362442 7.6533041 0.49773836 3 -1
2.2596376 7.6571813 0.4863376 3 -1
2.2762599 7.6826601 0.48104137 3 -1
2.2918866 7.6894493 0.49303102 3 -1
2.3152859 7.6989307 0.48750973 3 -1
2.3323462 7.7021742 0.48525196 3 -1
2.3703201 7.7363181 0.49468648 3 -1
2.4007187 7.76755 0.49992299 3 -1
2.3983431 7.7771745 0.49726164 3 -1
2.4220941 7.8119001 0.5052107 3 -1
2.473335 7.8489513 0.4865157 3 -1
2.518528 7.8889427 0.51019543 3 -1
2.6038117 7.9940152 0.52511972 3 -1
3.5654831 10.080133 0.6025641 2 -1
3.6572323 10.064597 0.59866214 2 -1
3.7564135 10.076836 0.59573448 2 -1
3.8664565 10.075418 0.60307646 2 -1
3.9652462 10.105429 0.60473943 2 -1
0.10537481 7.1883883 0.6086247 2 -1
0.08899951 7.2408886 0.62710118 2 -1
0.12139463 7.2971034 0.62050432 2 -1
0.10415196 7.370719 0.6047982 2 -1
0.11169696 7.4367065 0.59094203 2 -1
0.1046083 7.4925785 0.60966265 2 -1
0.10994196 7.5567555 0.60796201 2 -1
0.11920166 7.6311045 0.60361528 2 -1
0.12456918 7.7052732 0.6285826 2 -1
0.098512888 7.7777367 0.60976577 2 -1
0.11763477 7.8563309 0.61785102 2 -1
0.10441279 7.9187274 0.60309803 2 -1
0.12751913 7.9589086 0.61437392 2 -1
0.12436962 8.0330534 0.61353785 2 -1
0.12535477 8.1362553 0.61980414 2 -1
0.12551117 8.1963682 0.61036766 2 -1
1.4619222 7.5509462 0.54312378 3 -1
1.5584738 7.5290623 0.51637965 3 -1
1.6177728 7.5260558 0.52861953 3 -1
1.6543859 7.5137024 0.53041184 3 -1
1.7011807 7.5011559 0.51300722 3 -1
1.7335799 7.5068893 0.51554996 3 -1
1.7564058 7.5131483 0.50389296 3 -1
1.7841275 7.5097599 0.51550275 3 -1
1.8134835 7.5174341 0.48294008 3 -1
1.8382421 7.5102224 0.49829334 3 -1
1.8656318 7.528482 0.52340376 3 -1
1.869148 7.5086498 0.50564498 3 -1
1.900167 7.5281072 0.50283873 3 -1
1.922186 7.5273929 0.50265884 3 -1
1.9108269 7.5173483 0.5052439 3 -1
1.9404565 7.5470324 0.50903845 3 -1
1.964916 7.5441751 0.50368917 3 -1
1.9607625 7.5587311 0.50753057 3 -1
1.9790952 7.5642872 0.49608856 3 -1
2.0018959 7.552176 0.49330938 3 -1
2.0087304 7.5581179 0.49661893 3 -1
2.0244131 7.5826473 0.49720728 3 -1
2.0279145 7.5742445 0.50236744 3 -1
2.0542262 7.5699873 0.4748916 3 -1
2.0614562 7.5913901 0.51775557 3 -1
2.0711105 7.5790253 0.47994792 3 -1
2.0950694 7.5820599 0.48794258 3 -1
2.1036541 7.6025648 0.50628376 3 -1
2.1125271 7.5994859 0.49681729 3 -1
2.1314011 7.6245646 0.48674679 3 -1
2.1513932 7.6199317 0.49860686 3 -1
2.1853368 7.6032357 0.50336039 3 -1
2.1841807 7.6133766 0.50444472 3 -1
2.1971555 7.6265907 0.49306965 3 -1
2.2076309 7.6457009 0.49422622 3 -1
2.2204139 7.6528635 0.4904716 3 -1
2.2402208 7.6467566 0.51986068 3 -1
2.2614532 7.6651583 0.49337929 3 -1
2.2810142 7.6737528 0.49428552 3 -1
2.2935972 7.6900654 0.51662016 3 -1
2.3108418 7.703887 0.49335653 3 -1
2.3367095 7.7264566 0.49504679 3 -1
2.3443916 7.7305174 0.50379103 3 -1
2.3646491 7.7558956 0.52898961 3 -1
2.4054189 7.7788539 0.52000982 3 -1
2.443924 7.8204813 0.51180661 3 -1
2.4720387 7.824214 0.51510394 3 -1
2.5214186 7.8991451 0.52831829 3 -1
2.5848272 7.9869843 0.51602328 3 -1
3.5465651 10.075459 0.67758352 2 -1
3.6520803 10.071955 0.68923658 2 -1
3.7620554 10.071321 0.67503333 2 -1
3.8691907 10.072948 0.69283891 2 -1
3.9548657 10.099771 0.69265664 2 -1
0.097695112 7.1783209 0.64767188 2 -1
0.10390401 7.2394981 0.64825577 2 -1
0.096955538 7.2885213 0.65938181 2 -1
0.10201025 7.3543243 0.66036695 2 -1
0.10091305 7.4326601 0.65673125 2 -1
0.1129055 7.5072393 0.65041089 2 -1
0.11423063 7.550797 0.639323 2 -1
0.11355472 7.6391993 0.66264451 2 -1
0.11013579 7.7170053 0.66959846 2 -1
0.12520123 7.7863827 0.65496874 2 -1
0.11706018 7.8290782 0.67509341 2 -1
0.10761476 7.9099593 0.65229976 2 -1
0.10815692 7.9777317 0.65109271 2 -1
0.12910461 8.0556889 0.66414952 2 -1
0.12205052 8.1330729 0.67563766 2 -1
0.13800907 8.2302475 0.67617047 2 -1
1.4516361 7.5520735 0.5472672 3 -1
1.5698216 7.5180645 0.53561449 3 -1
1.6093524 7.5057759 0.54925072 3 -1
1.6470978 7.5237718 0.5145421 3 -1
1.701833 7.5084205 0.52430117 3 -1
1.7314267 7.500967 0.52918077 3 -1
1.7667273 7.5109568 0.523063 3 -1
1.7709951 7.5233364 0.50619942 3 -1
1.8105831 7.5278397 0.51863807 3 -1
1.833527 7.5179772 0.50796092 3 -1
1.8445654 7.5084548 0.51787698 3 -1
1.8757417 7.519793 0.51336277 3 -1
1.8912066 7.5231538 0.50401008 3 -1
1.9138575 7.547533 0.53343749 3 -1
1.9309399 7.5179691 0.51555562 3 -1
1.9339498 7.5310535 0.51483577 3 -1
1.9778404 7.5636468 0.5315848 3 -1
1.967111 7.5270205 0.51402915 3 -1
1.9901149 7.5331311 0.51124001 3 -1
1.9904429 7.553174 0.52895284 3 -1
2.016448 7.544383 0.50945574 3 -1
2.0324688 7.5443063 0.49558574 3 -1
2.0540731 7.5547228 0.50575912 3 -1
2.071969 7.5765619 0.52566338 3 -1
2.0744522 7.5689692 0.52341127 3 -1
2.0720923 7.5919104 0.50985122 3 -1
2.0891335 7.5929856 0.49048525 3 -1
2.106986 7.5884066 0.49976832 3 -1
2.1272397 7.5800972 0.49217987 3 -1
2.1295397 7.6252608 0.50503856 3 -1
2.1578381 7.6148248 0.51040405 3 -1
2.165288 7.6164956 0.51280069 3 -1
2.1870582 7.6244903 0.51738012 3 -1
2.1808267 7.6229372 0.50661457 3 -1
2.2030997 7.6347189 0.5101223 3 -1
2.2206235 7.6390462 0.51191235 3 -1
2.242085 7.6353865 0.49848545 3 -1
2.2465606 7.6589022 0.4918716 3 -1
2.2622194 7.6671705 0.51631182 3 -1
2.2892027 7.6733456 0.52459246 3 -1
2.3229053 7.7155905 0.49933559 3 -1
2.3235841 7.7152386 0.50581217 3 -1
2.3556449 7.7215137 0.5056625 3 -1
2.3773818 7.7567592 0.52052987 3 -1
2.3998032 7.7908545 0.52568221 3 -1
2.4326835 7.8101039 0.52289176 3 -1
2.4676785 7.8322659 0.54137725 3 -1
2.5107145 7.9146605 0.56172353 3 -1
2.5719028 7.9865084 0.52916223 3 -1
3.5441279 10.055461 0.74314296 2 -1
3.6480334 10.065236 0.75301421 2 -1
3.7552176 10.053024 0.754637 2 -1
3.8813505 10.061555 0.77013159 2 -1
3.9571366 10.090127 0.76941454 2 -1
0.09606266 7.1618214 0.71520114 2 -1
0.12120819 7.2399201 0.68420166 2 -1
0.10988832 7.309267 0.70988566 2 -1
0.10534692 7.3640676 0.71352607 2 -1
0.11173868 7.426353 0.7224009 2 -1
0.089189529 7.4976125 0.70399868 2 -1
0.10548139 7.5561833 0.68820214 2 -1
0.11552596 7.6256261 0.70958602 2 -1
0.13308597 7.6992369 0.72046095 2 -1
0.10375476 7.7675719 0.70210314 2 -1
0.12181306 7.8312898 0.72465169 2 -1
0.10263538 7.9173441 0.71521306 2 -1
0.12262368 7.9728456 0.71518362 2 -1
0.10791516 8.0477428 0.70170248 2 -1
0.12242317 8.1271925 0.7371254 2 -1
0.11674094 8.2196999 0.72130036 2 -1
1.4642725 7.5280986 0.56128854 3 -1
1.5595796 7.5534201 0.53635222 3 -1
1.6270034 7.5212803 0.54716152 3 -1
1.6792818 7.511476 0.53353077 3 -1
1.7068321 7.5223966 0.54433626 3 -1
1.7337649 7.5021281 0.52553254 3 -1
1.7533677 7.506279 0.53371209 3 -1
1.7752308 7.5306973 0.53079379 3 -1
1.8139236 7.5335808 0.52896631 3 -1
1.8214377 7.5325522 0.53043771 3 -1
1.8590989 7.5230784 0.53178877 3 -1
1.8645569 7.5270452 0.53319794 3 -1
1.893284 7.519218 0.52781892 3 -1
1.9122901 7.5215926 0.51942694 3 -1
1.934381 7.5363784 0.54801518 3 -1
1.9390626 7.5429454 0.51600188 3 -1
1.9458015 7.5511432 0.51920116 3 -1
2.0031571 7.5461187 0.51011157 3 -1
1.9787666 7.5454979 0.52930486 3 -1
1.9837207 7.5563006 0.52361482 3 -1
2.0175102 7.5724974 0.51329011 3 -1
2.033222 7.5602021 0.53677464 3 -1
2.0304382 7.5616336 0.53020138 3 -1
2.0479743 7.5654674 0.51202977 3 -1
2.0559525 7.5678854 0.53759801 3 -1
2.0897963 7.5760555 0.52431262 3 -1
2.1035681 7.5821772 0.52139252 3 -1
2.1133087 7.5830092 0.510827 3 -1
2.1244855 7.5774584 0.50641841 3 -1
2.1311684 7.6027369 0.5232076 3 -1
2.1610179 7.6003156 0.52932167 3 -1
2.1536672 7.6117477 0.54586363 3 -1
2.187429 7.6187329 0.5111689 3 -1
2.2024775 7.6372981 0.53451371 3 -1
2.2147372 7.6421294 0.51339889 3 -1
2.2230539 7.6561017 0.51437056 3 -1
2.2466249 7.6534629 0.53577435 3 -1
2.2476075 7.6724901 0.53448534 3 -1
2.2715309 7.6755648 0.52434671 3 -1
2.3027313 7.6897945 0.53536767 3 -1
2.3061941 7.7016578 0.54604632 3 -1
2.3298211 7.7040315 0.55220234 3 -1
2.367748 7.7282434 0.53296828 3 -1
2.3910728 7.7590909 0.53777868 3 -1
2.4151025 7.782423 0.54332834 3 -1
2.4518173 7.8243499 0.53153998 3 -1
2.4554791 7.8518267 0.5535211 3 -1
2.5055158 7.9343343 0.55341178 3 -1
2.5753031 7.9921694 0.57810253 3 -1
3.5389256 10.051953 0.8100177 2 -1
3.663919 10.076699 0.80964333 2 -1
3.7718804 10.06358 0.82898659 2 -1
3.8774214 10.079174 0.83094633 2 -1
3.943769 10.081223 0.84863842 2 -1
0.11076355 7.1575646 0.74354124 2 -1
0.1190393 7.229321 0.73946834 2 -1
0.079899788 7.3138723 0.76274151 2 -1
0.12111163 7.3668332 0.75294912 2 -1
0.11077809 7.4500523 0.7539928 2 -1
0.11324215 7.4954815 0.76343381 2 -1
0.11136484 7.5539637 0.74383461 2 -1
0.11360431 7.642993 0.7565431 2 -1
0.11345196 7.687295 0.75601578 2 -1
0.10652781 7.7660933 0.75406384 2 -1
0.12848401 7.8238568 0.76979697 2 -1
0.11288333 7.9113035 0.75625074 2 -1
0.11170983 7.9839888 0.7609005 2 -1
0.11706591 8.0734844 0.76102042 2 -1
0.12114048 8.1359215 0.77249449 2 -1
0.12184954 8.2247572 0.77977252 2 -1
1.4679346 7.5394688 0.58264768 3 -1
1.5522697 7.523591 0.57633644 3 -1
1.6021595 7.530056 0.55846536 3 -1
1.6554215 7.5199814 0.56679195 3 -1
1.701056 7.4875517 0.56885195 3 -1
1.7337782 7.5182209 0.56618613 3 -1
1.7523787 7.4941511 0.53202248 3 -1
1.7711084 7.5320048 0.53898907 3 -1
1.7936268 7.5147696 0.54950309 3 -1
1.8139267 7.5184488 0.52593672 3 -1
1.8507053 7.51015 0.54811352 3 -1
1.8807528 7.5046201 0.52536958 3 -1
1.8982302 7.5421839 0.521281 3 -1
1.9142952 7.5262113 0.52141428 3 -1
1.9109882 7.5406833 0.53089499 3 -1
1.940343 7.541729 0.53301215 3 -1
1.9734944 7.5485249 0.53358239 3 -1
1.9934067 7.5473347 0.52363545 3 -1
1.9935136 7.5530419 0.53308487 3 -1
2.0194268 7.5463538 0.52583009 3 -1
2.013273 7.5384731 0.53847396 3 -1
2.0224314 7.5545902 0.52190244 3 -1
2.0454953 7.546989 0.53474641 3 -1
2.0529704 7.5662241 0.52256584 3 -1
2.0649643 7.5653095 0.51547724 3 -1
2.0722184 7.5774155 0.53254122 3 -1
2.1004596 7.5713792 0.55956519 3 -1
2.1245263 7.5926781 0.52042615 3 -1
2.128166 7.6086226 0.5207178 3 -1
2.1475625 7.6055713 0.54594982 3 -1
2.1542773 7.6289368 0.54103732 3 -1
2.1604116 7.6046252 0.52043569 3 -1
2.1690214 7.6398554 0.52149922 3 -1
2.1961911 7.6229811 0.55099255 3 -1
2.2009103 7.6253648 0.55279601 3 -1
2.213484 7.6381879 0.5212332 3 -1
2.2525923 7.6558084 0.54605925 3 -1
2.2611747 7.6583872 0.55058604 3 -1
2.2658768 7.6855516 0.53459537 3 -1
2.2859135 7.6845336 0.54141605 3 -1
2.3078017 7.699131 0.5395357 3 -1
2.3476362 7.7138882 0.54740846 3 -1
2.3644302 7.7329311 0.55693686 3 -1
2.3841505 7.7722764 0.54101688 3 -1
2.4013829 7.786531 0.53381366 3 -1
2.4319501 7.7953353 0.57783324 3 -1
2.4688659 7.8468261 0.55890977 3 -1
2.5242114 7.9018493 0.58712983 3 -1
2.5682611 7.993021 0.61077046 3 -1
3.546638 10.075006 0.88474405 2 -1
3.6657887 10.071861 0.89761132 2 -1
3.758791 10.069973 0.8901304 2 -1
3.8782582 10.051735 0.89768684 2 -1
3.9624467 10.098951 0.90672326 2 -1
0.10794997 7.1643448 0.79471785 2 -1
0.099432707 7.2444701 0.78508151 2 -1
0.097479343 7.3003302 0.79691422 2 -1
0.12726545 7.3737378 0.79444814 2 -1
0.11058712 7.4364991 0.78655922 2 -1
0.11935568 7.4928241 0.80062675 2 -1
0.099453211 7.5676684 0.78949726 2 -1
0.11373591 7.6111574 0.79165071 2 -1
0.087314129 7.7235909 0.79907501 2 -1
0.12886691 7.7580333 0.79755831 2 -1
0.1130383 7.8363094 0.8150838 2 -1
0.11315155 7.9084363 0.81509995 2 -1
0.11280179 7.9685087 0.80099881 2 -1
0.11262989 8.0624237 0.81561828 2 -1
0.13906312 8.1164579 0.81740832 2 -1
0.1238966 8.2030592 0.80093819 2 -1
1.4626777 7.5365772 0.60529268 3 -1
1.5483245 7.5270686 0.58778816 3 -1
1.5907803 7.5169253 0.58430296 3 -1
1.672976 7.5263834 0.57909781 3 -1
1.6990194 7.5263996 0.55671704 3 -1
1.7287252 7.5156155 0.5515573 3 -1
1.7630601 7.5304599 0.57334667 3 -1
1.786036 7.5231404 0.54456359 3 -1
1.803425 7.5156341 0.54057735 3 -1
1.8303037 7.5199828 0.57327873 3 -1
1.8549891 7.5210643 0.53439069 3 -1
1.8843811 7.5192866 0.53850746 3 -1
1.8759966 7.530467 0.54597139 3 -1
1.9206966 7.5348883 0.55511349 3 -1
1.9257658 7.5215425 0.53656799 3 -1
1.9416398 7.5262489 0.53772759 3 -1
1.9737114 7.5334249 0.52789849 3 -1
1.977962 7.5595608 0.54336727 3 -1
1.9982126 7.5604205 0.54104584 3 -1
1.9966836 7.5507965 0.54576254 3 -1
2.0132565 7.5585918 0.53089154 3 -1
2.0209262 7.5532002 0.54735249 3 -1
2.064678 7.5718708 0.54363084 3 -1
2.0621138 7.5809846 0.5335927 3 -1
2.0614991 7.5769916 0.54359961 3 -1
2.0972025 7.5680056 0.53897119 3 -1
2.0881994 7.5900373 0.52746117 3 -1
2.1062226 7.5872889 0.54361594 3 -1
2.1265647 7.5903764 0.53993165 3 -1
2.1410749 7.5984893 0.52954805 3 -1
2.1591163 7.6194468 0.5471822 3 -1
2.1925669 7.6079288 0.52632284 3 -1
2.176065 7.6215291 0.52451128 3 -1
2.1911676 7.6204014 0.55578166 3 -1
2.1988807 7.6414232 0.54708654 3 -1
2.2277157 7.6520305 0.52419066 3 -1
2.2345748 7.6383553 0.5390535 3 -1
2.2600765 7.6665559 0.54422474 3 -1
2.2572541 7.6890659 0.56795251 3 -1
2.2743974 7.6899714 0.56389695 3 -1
2.3241436 7.6918006 0.56947255 3 -1
2.3171482 7.7112236 0.5561657 3 -1
2.3529167 7.7314568 0.55418146 3 -1
2.3795817 7.7532454 0.57453722 3 -1
2.4012539 7.7825122 0.5632084 3 -1
2.4346588 7.8074727 0.58410162 3 -1
2.4669104 7.834291 0.57227147 3 -1
2.5030317 7.90276 0.58645499 3 -1
2.5655973 7.9845982 0.61261719 3 -1
3.5501785 10.089361 0.9437511 2 -1
3.6564827 10.066015 0.96481347 2 -1
3.7612834 10.054815 0.95747793 2 -1
3.8753064 10.075245 0.96463495 2 -1
3.9430323 10.091421 0.98474646 2 -1
0.1213007 7.1684031 0.85321718 2 -1
0.091657162 7.2352962 0.82497537 2 -1
0.101089 7.2970638 0.83805835 2 -1
0.1001935 7.3695908 0.85778451 2 -1
0.11206889 7.4098625 0.86949605 2 -1
0.12028193 7.4954872 0.85004795 2 -1
0.10698175 7.5735612 0.82904303 2 -1
0.11863565 7.6272802 0.82549524 2 -1
0.11311102 7.6832466 0.84756869 2 -1
0.11684346 7.7649994 0.84741932 2 -1
0.114218 7.8529415 0.85540187 2 -1
0.12453747 7.8927402 0.86602747 2 -1
0.12813449 7.9958134 0.84769428 2 -1
0.12637568 8.0585909 0.87961239 2 -1
0.11536551 8.1231499 0.86984795 2 -1
0.12294912 8.2063217 0.8796652 2 -1
1.4787171 7.53265 0.6334511 3 -1
1.5701711 7.5276666 0.61767709 3 -1
1.6104996 7.5278611 0.61060596 3 -1
1.6641684 7.5189686 0.6177116 3 -1
1.6942356 7.5151038 0.58052468 3 -1
1.7260416 7.5200281 0.57867539 3 -1
1.7610674 7.5142078 0.56201905 3 -1
1.8046129 7.5197692 0.55142134 3 -1
1.8191369 7.5282106 0.56532872 3 -1
1.8330705 7.5031466 0.57876605 3 -1
1.8495333 7.527029 0.56073457 3 -1
1.8630953 7.5261631 0.5551303 3 -1
1.8932828 7.5450497 0.57765645 3 -1
1.9124216 7.5279245 0.54726237 3 -1
1.9157996 7.5355811 0.55940175 3 -1
1.9526216 7.547688 0.54836261 3 -1
1.9592465 7.5487814 0.54786837 3 -1
1.9622294 7.5517883 0.55279809 3 -1
2.0013261 7.5480475 0.5519321 3 -1
2.0065427 7.5538945 0.55487537 3 -1
1.9986851 7.5526037 0.55309021 3 -1
2.0281725 7.5665216 0.55034387 3 -1
2.0327046 7.5595369 0.54803264 3 -1
2.0527225 7.5676894 0.55419731 3 -1
2.0646522 7.5739584 0.54278708 3 -1
2.0770023 7.5838957 0.56528884 3 -1
2.0897992 7.5868783 0.55240697 3 -1
2.1120958 7.5840936 0.563088 3 -1
2.1197517 7.5915103 0.54807341 3 -1
2.1442237 7.6084018 0.55604506 3 -1
2.1458569 7.6082335 0.56978965 3 -1
2.1527083 7.6308126 0.54369467 3 -1
2.1828926 7.6130438 0.5593918 3 -1
2.2035797 7.6448317 0.56226259 3 -1
2.2030373 7.650382 0.54327071 3 -1
2.2334933 7.6199284 0.57040924 3 -1
2.2398925 7.6537809 0.55771273 3 -1
2.2615454 7.6627235 0.56827128 3 -1
2.2661538 7.686101 0.57650602 3 -1
2.2771447 7.7011533 0.56945193 3 -1
2.3041556 7.7031627 0.56220692 3 -1
2.319629 7.7027082 0.56813687 3 -1
2.3796277 7.7335186 0.56924605 3 -1
2.3850188 7.7603741 0.56048149 3 -1
2.4188838 7.7815289 0.57427603 3 -1
2.4414427 7.803215 0.59564513 3 -1
2.4649966 7.8368635 0.60624826 3 -1
2.5051041 7.9120803 0.61161017 3 -1
2.5901389 8.0073252 0.64492923 3 -1
3.5463214 10.081724 1.0118365 2 -1
3.6408167 10.072248 1.0412742 2 -1
3.7478251 10.068748 1.0554236 2 -1
3.8741348 10.05722 1.0224105 2 -1
3.9512939 10.087138 1.0666648 2 -1
0.10494947 7.1836638 0.87415433 2 -1
0.1038518 7.215663 0.86543512 2 -1
0.093889475 7.3011475 0.87698311 2 -1
0.097313404 7.3608141 0.88520062 2 -1
0.10156393 7.4190164 0.89379895 2 -1
0.11159086 7.497674 0.89064229 2 -1
0.087465048 7.5589232 0.91210687 2 -1
0.11779308 7.63552 0.88755554 2 -1
0.11924887 7.6830091 0.89515662 2 -1
0.11739445 7.7734089 0.90742958 2 -1
0.11859393 7.828094 0.90407813 2 -1
0.12228036 7.9081135 0.91134351 2 -1
0.14179087 7.9697075 0.91697276 2 -1
0.12847877 8.0639114 0.91616917 2 -1
0.11339307 8.1486092 0.91955042 2 -1
0.12148952 8.1956959 0.93092179 2 -1
1.4651983 7.5487051 0.62629366 3 -1
1.5639966 7.5003424 0.63511705 3 -1
1.6103494 7.5174465 0.62572527 3 -1
1.6421924 7.5016537 0.59394789 3 -1
1.7114029 7.5135975 0.6151405 3 -1
1.7357938 7.4898944 0.58705997 3 -1
1.7510365 7.5125685 0.59159714 3 -1
1.8023641 7.5191841 0.56967568 3 -1
1.7922403 7.5090404 0.57020271 3 -1
1.8416414 7.5061827 0.57716918 3 -1
1.8455514 7.5152836 0.57754898 3 -1
1.8847008 7.4983358 0.58284122 3 -1
1.8914491 7.5031953 0.57453883 3 -1
1.9049878 7.5254755 0.57746285 3 -1
1.9431049 7.5429354 0.57797825 3 -1
1.9383303 7.5321093 0.56145424 3 -1
1.9653473 7.5484238 0.57945615 3 -1
1.972481 7.5250297 0.56878567 3 -1
1.9964285 7.5545483 0.57336944 3 -1
1.9968213 7.549149 0.55637431 3 -1
2.0195429 7.5581532 0.57714999 3 -1
2.0131056 7.542531 0.54764491 3 -1
2.0589228 7.5645361 0.55945575 3 -1
2.0552316 7.543272 0.56928259 3 -1
2.0720255 7.5767903 0.56871337 3 -1
2.105232 7.5899043 0.54802972 3 -1
2.0971992 7.5962749 0.56302661 3 -1
2.1174235 7.6003337 0.57145947 3 -1
2.1261954 7.5945058 0.55805081 3 -1
2.1372652 7.5952263 0.57154721 3 -1
2.1465721 7.6169548 0.56835979 3 -1
2.1816437 7.6195788 0.54834348 3 -1
2.1770062 7.6338463 0.57070732 3 -1
2.1942616 7.6392403 0.55302477 3 -1
2.1978548 7.6351514 0.56316048 3 -1
2.2403324 7.6555257 0.56645095 3 -1
2.2542996 7.63416 0.55349958 3 -1
2.2708476 7.6739225 0.56862813 3 -1
2.2671626 7.6760807 0.58282077 3 -1
2.3133316 7.680984 0.57497227 3 -1
2.3044698 7.6985788 0.58055496 3 -1
2.3175926 7.7193861 0.58453256 3 -1
2.3341928 7.7320452 0.59645534 3 -1
2.3792017 7.7738533 0.59706807 3 -1
2.4159608 7.7597651 0.61575693 3 -1
2.4298766 7.793592 0.61116862 3 -1
2.4715466 7.8361964 0.62793964 3 -1
2.526309 7.8945832 0.62288243 3 -1
2.581387 7.9975162 0.65475798 3 -1
3.5495472 10.08799 1.1042625 2 -1
3.6693316 10.048958 1.1102415 2 -1
3.7585778 10.063271 1.1102796 2 -1
3.8584924 10.056468 1.1207727 2 -1
3.9359946 10.087708 1.1238726 2 -1
0.11483145 7.1618886 0.93157846 2 -1
0.10070586 7.2287478 0.92771482 2 -1
0.11996984 7.3262863 0.93942666 2 -1
0.10857511 7.3772869 0.93924242 2 -1
0.1200943 7.4369354 0.93097138 2 -1
0.12627172 7.4923639 0.94302773 2 -1
0.12091088 7.5499687 0.92481601 2 -1
0.1147027 7.6211739 0.92129707 2 -1
0.12438393 7.676496 0.93050098 2 -1
0.1132915 7.7630272 0.94986451 2 -1
0.12399173 7.837142 0.97216058 2 -1
0.12562943 7.9125896 0.96178603 2 -1
0.10519481 7.9900799 0.98992705 2 -1
0.11740947 8.0567942 0.97244787 2 -1
0.12473607 8.1206551 0.9637574 2 -1
0.15190339 8.2135048 0.98336184 2 -1
1.4726851 7.5454082 0.66511762 3 -1
1.5529218 7.5252318 0.63361073 3 -1
1.6200293 7.5283499 0.60821474 3 -1
1.6589108 7.5307212 0.60133588 3 -1
1.7123702 7.5092063 0.62628436 3 -1
1.7390459 7.5014172 0.59865826 3 -1
1.7567873 7.5197988 0.59848243 3 -1
1.7844069 7.5455818 0.61448503 3 -1
1.7989919 7.5194921 0.60360736 3 -1
1.8402648 7.4870257 0.60173702 3 -1
1.8513558 7.5180292 0.584508 3 -1
1.8851646 7.5285139 0.58543509 3 -1
1.8961314 7.5342922 0.57954037 3 -1
1.9060012 7.5310655 0.59042019 3 -1
1.9493058 7.5450554 0.59038645 3 -1
1.935477 7.5337744 0.57364571 3 -1
1.9567008 7.5375838 0.55708838 3 -1
1.9856577 7.5545325 0.55794841 3 -1
1.9845729 7.544908 0.55897897 3 -1
1.9921434 7.5520325 0.58068371 3 -1
2.0280471 7.5602894 0.56154835 3 -1
2.0466363 7.5597072 0.56337607 3 -1
2.054245 7.5580978 0.58257705 3 -1
2.0630245 7.5666938 0.55546403 3 -1
2.0565543 7.5608139 0.59090066 3 -1
2.0727141 7.5962815 0.57472646 3 -1
2.0882294 7.582592 0.56059229 3 -1
2.1148596 7.5881815 0.56828946 3 -1
2.1253901 7.5961189 0.56588781 3 -1
2.1360953 7.625124 0.57512391 3 -1
2.1581867 7.609714 0.5883317 3 -1
2.174437 7.6187191 0.58619583 3 -1
2.1711793 7.6241894 0.55558127 3 -1
2.1850669 7.6230907 0.57120132 3 -1
2.2042263 7.6092844 0.57515013 3 -1
2.2165565 7.6445866 0.5931502 3 -1
2.2355931 7.6595321 0.58250028 3 -1
2.2627864 7.6786432 0.58511955 3 -1
2.2856774 7.6735086 0.58844173 3 -1
2.2818372 7.6621947 0.57353181 3 -1
2.3163981 7.7050543 0.59565061 3 -1
2.3270082 7.7107787 0.59111845 3 -1
2.345335 7.7327743 0.61651766 3 -1
2.3768356 7.7529449 0.61311746 3 -1
2.4230235 7.7849827 0.61632031 3 -1
2.4428003 7.8118038 0.62159282 3 -1
2.4707277 7.8259039 0.61501551 3 -1
2.5006013 7.9123702 0.65651917 3 -1
2.5802243 8.0120258 0.66261852 3 -1
3.5302162 10.073088 1.1556554 2 -1
3.6482348 10.056102 1.1668665 2 -1
3.7541828 10.058392 1.1810293 2 -1
3.8856287 10.061695 1.201314 2 -1
3.9498844 10.091348 1.2339922 2 -1
0.098197937 7.1836634 0.98081923 2 -1
0.11425877 7.2441897 0.98516691 2 -1
0.12384772 7.3019052 0.9705236 2 -1
0.10254908 7.3627062 0.97955155 2 -1
0.12170553 7.4472284 0.98365998 2 -1
0.12164927 7.491425 0.98520148 2 -1
0.11585307 7.5647049 0.985376 2 -1
0.12168932 7.6198258 0.9863919 2 -1
0.12448192 7.6688647 0.99737632 2 -1
0.11111379 7.7728686 0.9972918 2 -1
0.11684799 7.8069181 1.000988 2 -1
0.1114676 7.9109888 1.0035565 2 -1
0.10814524 7.9855409 1.0081941 2 -1
0.13655114 8.0534306 1.0046489 2 -1
0.12409616 8.1242628 1.0322828 2 -1
0.12157655 8.2085705 1.0208666 2 -1
1.4847813 7.5221887 0.67007113 3 -1
1.5506263 7.5114584 0.6655305 3 -1
1.6151326 7.5251489 0.6458317 3 -1
1.6619353 7.5065732 0.63095474 3 -1
1.6952777 7.4999247 0.61365741 3 -1
1.719614 7.5007634 0.62524521 3 -1
1.748698 7.5114856 0.60415208 3 -1
1.7814267 7.5242848 0.59482515 3 -1
1.8262186 7.5157361 0.6158846 3 -1
1.8338742 7.5161805 0.59860957 3 -1
1.8485829 7.5202165 0.59689689 3 -1
1.8792927 7.5266738 0.60096699 3 -1
1.8996744 7.4900146 0.57229441 3 -1
1.9134319 7.536859 0.59996057 3 -1
1.9236319 7.5296755 0.58769119 3 -1
1.9575869 7.5242705 0.5965482 3 -1
1.9677391 7.5267553 0.58019114 3 -1
1.9667937 7.5409737 0.59549677 3 -1
1.9848919 7.5485759 0.59792054 3 -1
1.9922162 7.5502214 0.59242052 3 -1
2.0188906 7.5602231 0.56837517 3 -1
2.030035 7.5556083 0.58608782 3 -1
2.0471091 7.5651479 0.57620466 3 -1
2.0478349 7.5633764 0.57544231 3 -1
2.0653372 7.5681729 0.57649958 3 -1
2.0733571 7.5648298 0.58022261 3 -1
2.1106203 7.5746655 0.57956678 3 -1
2.1068144 7.5970654 0.57785016 3 -1
2.1146216 7.5798388 0.57211161 3 -1
2.1321929 7.5875969 0.58416557 3 -1
2.1421111 7.5985847 0.56816959 3 -1
2.1659453 7.6137733 0.57040823 3 -1
2.1838088 7.6333208 0.59410059 3 -1
2.1953454 7.6249151 0.57906973 3 -1
2.1867399 7.6268158 0.5944137 3 -1
2.2283738 7.6389585 0.57818073 3 -1
2.2408035 7.6568494 0.60558569 3 -1
2.2527716 7.6663527 0.59173596 3 -1
2.2686791 7.6862426 0.59493852 3 -1
2.2908316 7.6973548 0.60290879 3 -1
2.296104 7.712626 0.59781939 3 -1
2.3431637 7.6983533 0.61198771 3 -1
2.3676939 7.7103758 0.60859412 3 -1
2.3895037 7.7536788 0.63287282 3 -1
2.4177535 7.7764225 0.62877619 3 -1
2.4261384 7.8093681 0.65117174 3 -1
2.4586189 7.8377533 0.65303183 3 -1
2.5077181 7.9037724 0.66508299 3 -1
2.5958319 7.9922147 0.69890791 3 -1
3.5397115 10.068332 1.2340025 2 -1
3.6542313 10.068816 1.2428846 2 -1
3.7603049 10.070895 1.2608347 2 -1
3.8821821 10.044247 1.2858694 2 -1
3.9512 10.095407 1.2849629 2 -1
0.11716652 7.1666002 1.0248126 2 -1
0.098585367 7.2533221 1.0271285 2 -1
0.09555459 7.3033118 1.0457338 2 -1
0.091560364 7.3507123 1.0324802 2 -1
0.10832596 7.4356537 1.0307934 2 -1
0.10984373 7.4850521 1.0335149 2 -1
0.12174034 7.5756321 1.0495632 2 -1
0.11871362 7.6306643 1.0480206 2 -1
0.11615157 7.7015095 1.0501037 2 -1
0.13179398 7.7667775 1.0632998 2 -1
0.12117958 7.8463717 1.0672389 2 -1
0.11347556 7.9111962 1.0665983 2 -1
0.12119436 7.9717407 1.0855727 2 -1
0.12175989 8.0585289 1.0725751 2 -1
0.12861896 8.1351995 1.0920572 2 -1
0.11454654 8.2028627 1.1021768 2 -1
1.4744637 7.5715976 0.70169318 3 -1
1.5519366 7.5298419 0.67018998 3 -1
1.617866 7.5236921 0.66625476 3 -1
1.6631615 7.5040979 0.65258151 3 -1
1.712857 7.5296335 0.62988907 3 -1
1.7455678 7.5083609 0.61734205 3 -1
1.7677746 7.4990034 0.64188272 3 -1
1.7969918 7.5203171 0.61701852 3 -1
1.8144422 7.5220866 0.62824267 3 -1
1.8339046 7.5180225 0.63062549 3 -1
1.8549268 7.5209489 0.60014832 3 -1
1.8908073 7.5179043 0.6198647 3 -1
1.8943387 7.5130172 0.62915438 3 -1
1.9168602 7.5315313 0.62254763 3 -1
1.9384049 7.5387802 0.60728687 3 -1
1.9481008 7.5491486 0.60189861 3 -1
1.9551097 7.5528021 0.60556525 3 -1
1.975173 7.5298142 0.59646165 3 -1
1.97101 7.5542693 0.58300406 3 -1
1.9987402 7.5199957 0.60977077 3 -1
2.0083601 7.5481424 0.59891206 3 -1
2.040621 7.5443044 0.5845542 3 -1
2.0369985 7.5462089 0.59670269 3 -1
2.0655043 7.5604763 0.5884136 3 -1
2.0791552 7.5673018 0.60746741 3 -1
2.0781333 7.5718436 0.60571647 3 -1
2.1047347 7.5904317 0.61260408 3 -1
2.1249363 7.5824127 0.59401071 3 -1
2.102041 7.5986342 0.58770549 3 -1
2.1431849 7.6015172 0.60252947 3 -1
2.1610391 7.5943894 0.59940261 3 -1
2.1574123 7.5999103 0.61038953 3 -1
2.1830559 7.6158214 0.60108197 3 -1
2.1849165 7.6495886 0.58847857 3 -1
2.2073829 7.6254201 0.61600965 3 -1
2.2271397 7.6432667 0.59688395 3 -1
2.2348061 7.6549249 0.58763742 3 -1
2.2621293 7.6662116 0.627635 3 -1
2.2845495 7.6850309 0.61506128 3 -1
2.2955151 7.6810269 0.6264714 3 -1
2.3134649 7.6923242 0.60805315 3 -1
2.3140342 7.7242136 0.61547136 3 -1
2.3721888 7.7226458 0.63906807 3 -1
2.3703992 7.7674546 0.62842089 3 -1
2.392535 7.7852955 0.62359595 3 -1
2.4400084 7.7944493 0.65578049 3 -1
2.4839349 7.82932 0.67472446 3 -1
2.5168355 7.8961487 0.67590451 3 -1
2.5806124 7.9922714 0.71799886 3 -1
3.5463765 10.073635 1.3120235 2 -1
3.6474178 10.064907 1.3204904 2 -1
3.7766814 10.06127 1.3478963 2 -1
3.8854117 10.049689 1.3538188 2 -1
3.9445801 10.079372 1.3773569 2 -1
0.10493755 7.1601639 1.0764869 2 -1
0.11218214 7.22051 1.0718144 2 -1
0.10265541 7.2927232 1.0828469 2 -1
0.10700679 7.3778877 1.0818349 2 -1
0.10984063 7.4323583 1.0894195 2 -1
0.13445759 7.4727721 1.0777248 2 -1
0.1250968 7.5788522 1.0880866 2 -1
0.11323404 7.6349688 1.1060892 2 -1
0.1272254 7.7124968 1.1065512 2 -1
0.13303208 7.7529302 1.0967515 2 -1
0.13140869 7.8273578 1.1144025 2 -1
0.11846805 7.899013 1.1078395 2 -1
0.12386513 7.9549999 1.1284473 2 -1
0.14447188 8.0648651 1.12928 2 -1
0.11217427 8.1287899 1.1303098 2 -1
0.14655089 8.2053881 1.1543261 2 -1
1.4689897 7.553659 0.70303065 3 -1
1.5652031 7.5218229 0.6958344 3 -1
1.6240406 7.519053 0.68033528 3 -1
1.643014 7.5280061 0.65614182 3 -1
1.7228621 7.5251722 0.68604898 3 -1
1.7336497 7.5144229 0.63451308 3 -1
1.7668979 7.5159459 0.63786912 3 -1
1.7931037 7.4975548 0.63586712 3 -1
1.8076408 7.5044541 0.63753581 3 -1
1.8290595 7.512464 0.61542004 3 -1
1.8511784 7.5217447 0.63066858 3 -1
1.8693693 7.5220375 0.62300628 3 -1
1.8928694 7.5137882 0.61900049 3 -1
1.9069073 7.5365844 0.62263185 3 -1
1.9289234 7.5167165 0.60429996 3 -1
1.9157715 7.5173573 0.6026265 3 -1
1.96196 7.528266 0.61330938 3 -1
1.963683 7.532836 0.57868391 3 -1
1.9966159 7.5460434 0.6010651 3 -1
2.0160036 7.555356 0.5920608 3 -1
2.0214272 7.5419402 0.59868079 3 -1
2.0248144 7.5632491 0.57673925 3 -1
2.040211 7.5468278 0.60676807 3 -1
2.0586407 7.5642338 0.61749357 3 -1
2.0701644 7.5690756 0.60165083 3 -1
2.0898333 7.5741682 0.61045271 3 -1
2.0837939 7.5853963 0.61573315 3 -1
2.1123261 7.5850325 0.60346687 3 -1
2.1067531 7.6056566 0.61208266 3 -1
2.138793 7.6016073 0.60437918 3 -1
2.1577382 7.6006064 0.60710818 3 -1
2.1620336 7.6018696 0.60147709 3 -1
2.2031155 7.6398773 0.61884797 3 -1
2.1896641 7.6288338 0.61052299 3 -1
2.2111735 7.6200676 0.62112242 3 -1
2.2123508 7.6142635 0.62400061 3 -1
2.2316155 7.6558304 0.63072842 3 -1
2.2510848 7.6704245 0.62375546 3 -1
2.2722337 7.6837931 0.61921084 3 -1
2.3030868 7.6978621 0.63377869 3 -1
2.3270242 7.7002335 0.63189715 3 -1
2.3341806 7.7343178 0.63825214 3 -1
2.3515651 7.7309003 0.62562168 3 -1
2.3773727 7.7749453 0.66325331 3 -1
2.4096484 7.7800961 0.6628859 3 -1
2.4256434 7.7948389 0.68891144 3 -1
2.4718554 7.8373642 0.6987977 3 -1
2.5236323 7.9131174 0.68794143 3 -1
2.5725315 7.9913788 0.74073589 3 -1
3.5493815 10.075724 1.3872465 2 -1
3.6529722 10.055326 1.3953419 2 -1
3.764781 10.067823 1.3929489 2 -1
3.8687844 10.079943 1.4297061 2 -1
3.9536958 10.070137 1.4440445 2 -1
0.12108231 7.1642394 1.1314206 2 -1
0.10605121 7.2330389 1.1324584 2 -1
0.097344398 7.2977591 1.1131911 2 -1
0.10228848 7.3687325 1.1253855 2 -1
0.1107893 7.4286399 1.1377906 2 -1
0.098659515 7.5129848 1.147485 2 -1
0.097422123 7.560894 1.1300274 2 -1
0.12174582 7.6285038 1.1321099 2 -1
0.12334204 7.6988106 1.1690313 2 -1
0.12563038 7.761096 1.1476767 2 -1
0.12874675 7.8211336 1.1664042 2 -1
0.13143253 7.9101539 1.1694924 2 -1
0.14126444 7.9642968 1.1722975 2 -1
0.10744262 8.0545349 1.1706792 2 -1
0.13627982 8.1457186 1.1805516 2 -1
0.11866045 8.2079792 1.1954559 2 -1
1.4659951 7.556663 0.726704 3 -1
1.5467464 7.5254021 0.73374045 3 -1
1.6160543 7.5288234 0.68991363 3 -1
1.6680386 7.5019593 0.69805926 3 -1
1.6975422 7.519269 0.68106854 3 -1
1.738178 7.5117407 0.66310465 3 -1
1.7622879 7.5183311 0.64838701 3 -1
1.7907426 7.5275822 0.65735579 3 -1
1.8194093 7.5176144 0.64706856 3 -1
1.8225557 7.5308409 0.63672054 3 -1
1.8538878 7.5046625 0.62552142 3 -1
1.8546847 7.5079956 0.66064709 3 -1
1.897429 7.5194955 0.62964922 3 -1
1.9157695 7.524961 0.62917435 3 -1
1.9368193 7.5267344 0.62382531 3 -1
1.9450387 7.5278559 0.62730122 3 -1
1.9560845 7.5676999 0.61165363 3 -1
1.9884229 7.5356503 0.61534095 3 -1
1.9898927 7.5524983 0.59498662 3 -1
2.0072761 7.5466304 0.63368297 3 -1
2.0293858 7.554193 0.61488855 3 -1
2.0230408 7.5515823 0.61486733 3 -1
2.062228 7.5437374 0.62335098 3 -1
2.0570467 7.5912905 0.60483694 3 -1
2.0725105 7.5562811 0.61926073 3 -1
2.0775714 7.5878882 0.61088693 3 -1
2.1076932 7.5719237 0.61488807 3 -1
2.1280339 7.5910382 0.6222353 3 -1
2.1184688 7.5859871 0.591995 3 -1
2.1343179 7.5913682 0.62937444 3 -1
2.1516967 7.6068206 0.61738455 3 -1
2.1574821 7.6082821 0.63045013 3 -1
2.1812744 7.6431522 0.61074865 3 -1
2.1886895 7.6254621 0.63251138 3 -1
2.2119169 7.6341705 0.62311912 3 -1
2.2324185 7.6389065 0.61281329 3 -1
2.2318442 7.6763744 0.61953765 3 -1
2.2444324 7.6739569 0.64448792 3 -1
2.279799 7.6618381 0.6504398 3 -1
2.2879872 7.6670361 0.64258391 3 -1
2.313874 7.7100706 0.64827853 3 -1
2.3463528 7.7087407 0.65220636 3 -1
2.3544412 7.7434235 0.66054434 3 -1
2.3782442 7.7608557 0.67130202 3 -1
2.4014459 7.7739692 0.67580843 3 -1
2.4293163 7.8210597 0.69314682 3 -1
2.4479895 7.8472037 0.69645298 3 -1
2.5141985 7.9179811 0.73534918 3 -1
2.5759499 7.9827523 0.75651145 3 -1
3.5396533 10.063695 1.4671317 2 -1
3.6619027 10.055453 1.4761771 2 -1
3.7549348 10.057418 1.4830543 2 -1
3.8737874 10.062447 1.5001734 2 -1
3.9551747 10.09169 1.5040877 2 -1
0.11734557 7.1635566 1.1571723 2 -1
0.12176275 7.2469044 1.1882836 2 -1
0.13029075 7.2950015 1.1749324 2 -1
0.12294602 7.3699293 1.1720345 2 -1
0.11258698 7.419569 1.1947557 2 -1
0.1203618 7.5027552 1.1797084 2 -1
0.11686993 7.5518312 1.1783408 2 -1
0.114609 7.617815 1.2007173 2 -1
0.12149549 7.6957326 1.2027252 2 -1
0.1245718 7.7571349 1.1998687 2 -1
0.13594103 7.8233175 1.1965283 2 -1
0.12432837 7.9016647 1.2224549 2 -1
0.11761475 7.9735231 1.2330588 2 -1
0.12047625 8.0509768 1.244256 2 -1
0.12087202 8.1288671 1.2384787 2 -1
0.12255359 8.2162628 1.2657938 2 -1
1.4718549 7.5363865 0.75300193 3 -1
1.5705128 7.5300412 0.71922129 3 -1
1.6225296 7.5022821 0.71778703 3 -1
1.6629229 7.5293097 0.7109378 3 -1
1.6984724 7.5112014 0.67544836 3 -1
1.7504467 7.5052576 0.66848439 3 -1
1.7618489 7.504178 0.66443974 3 -1
1.7766345 7.5076871 0.67015016 3 -1
1.7975962 7.5289202 0.66322374 3 -1
1.8191817 7.5370665 0.67305446 3 -1
1.8455489 7.5113702 0.63730156 3 -1
1.883173 7.5255241 0.63569462 3 -1
1.8865918 7.5537868 0.64669245 3 -1
1.8909546 7.5308352 0.65318221 3 -1
1.9331477 7.5339708 0.6372661 3 -1
1.9317646 7.5301447 0.63042903 3 -1
1.9414947 7.5541315 0.63213998 3 -1
1.9720891 7.5504627 0.62118751 3 -1
1.9684079 7.5491819 0.63891041 3 -1
1.996418 7.5626545 0.6361317 3 -1
2.0180364 7.5645537 0.62805641 3 -1
2.0229685 7.5465479 0.63713485 3 -1
2.0505958 7.5808768 0.61692578 3 -1
2.0455961 7.5730009 0.6248377 3 -1
2.0851216 7.5771675 0.62598163 3 -1
2.0831184 7.5455017 0.62476063 3 -1
2.0857449 7.5743823 0.62036026 3 -1
2.1046057 7.5785732 0.62402242 3 -1
2.1368375 7.5871263 0.6121183 3 -1
2.1281679 7.6029453 0.61531919 3 -1
2.1421998 7.6058855 0.6244691 3 -1
2.1691554 7.6300697 0.62891841 3 -1
2.1836059 7.6081023 0.634269 3 -1
2.2066088 7.6321926 0.63311803 3 -1
2.2050502 7.6130404 0.62262756 3 -1
2.2150538 7.6298752 0.62790859 3 -1
2.2440715 7.6663551 0.64965391 3 -1
2.2588565 7.6758542 0.65044987 3 -1
2.2482498 7.6785994 0.67770869 3 -1
2.2880058 7.6834722 0.66753811 3 -1
2.3106854 7.6928406 0.66825843 3 -1
2.3310769 7.7191052 0.65838999 3 -1
2.3499253 7.7484069 0.67854083 3 -1
2.3838134 7.7520018 0.67970717 3 -1
2.3779855 7.7770529 0.69261414 3 -1
2.4290566 7.8202577 0.70402718 3 -1
2.4664853 7.8454852 0.7360543 3 -1
2.5181236 7.8971457 0.73773086 3 -1
2.5972247 7.9889498 0.76847845 3 -1
3.5396819 10.047255 1.5180476 2 -1
3.6580124 10.066284 1.5462632 2 -1
3.7463036 10.064402 1.5676812 2 -1
3.8766627 10.038956 1.5768076 2 -1
3.9408889 10.08127 1.5979246 2 -1
0.10252643 7.1777425 1.2195719 2 -1
0.11353374 7.2130837 1.20962 2 -1
0.11411428 7.2900295 1.2261978 2 -1
0.11442494 7.3637042 1.2378477 2 -1
0.12704659 7.4217391 1.244966 2 -1
0.11449575 7.4980426 1.2093345 2 -1
0.13940001 7.5657821 1.2377232 2 -1
0.1023407 7.6259604 1.2350651 2 -1
0.11101508 7.7084675 1.2507175 2 -1
0.11330748 7.7689056 1.2355453 2 -1
0.12006283 7.8493075 1.2451283 2 -1
0.10698652 7.9133892 1.2629341 2 -1
0.1293726 7.95327 1.2717539 2 -1
0.13465381 8.0339317 1.2913952 2 -1
0.12473392 8.1202402 1.3038864 2 -1
0.13109708 8.2281513 1.310192 2 -1
1.4833598 7.5489702 0.78420341 3 -1
1.556793 7.4874868 0.73762977 3 -1
1.6042745 7.5144844 0.71912467 3 -1
1.6660824 7.5136023 0.71425819 3 -1
1.7149036 7.5040631 0.69852722 3 -1
1.7285228 7.5174861 0.67644328 3 -1
1.7585735 7.5002909 0.69297177 3 -1
1.7711313 7.5149703 0.67823046 3 -1
1.8094943 7.5051594 0.67696774 3 -1
1.8385377 7.5275693 0.6688177 3 -1
1.8565812 7.5297799 0.65687144 3 -1
1.8723989 7.5203009 0.67623383 3 -1
1.8837054 7.5119524 0.63305187 3 -1
1.9032475 7.5543165 0.65811783 3 -1
1.9240614 7.5307283 0.65065593 3 -1
1.9482479 7.5323868 0.66889554 3 -1
1.9691442 7.5452743 0.62975556 3 -1
1.9922472 7.5392575 0.63231772 3 -1
1.9903512 7.5512171 0.64788806 3 -1
1.9876611 7.5570774 0.65226519 3 -1
2.0273404 7.5641584 0.63790071 3 -1
2.0553491 7.5669289 0.62703204 3 -1
2.0509155 7.5695667 0.64090449 3 -1
2.0649824 7.5725636 0.62832171 3 -1
2.0751076 7.5730801 0.63735628 3 -1
2.0681357 7.5928392 0.63188624 3 -1
2.111541 7.5658402 0.65602791 3 -1
2.1099498 7.5812001 0.63324541 3 -1
2.1342058 7.5971212 0.64276826 3 -1
2.1524742 7.5894217 0.63769221 3 -1
2.1488416 7.5933771 0.66220415 3 -1
2.1573048 7.6215725 0.64188641 3 -1
2.1844051 7.6076369 0.64955348 3 -1
2.1826475 7.6233191 0.64148593 3 -1
2.2058339 7.628499 0.65685892 3 -1
2.2228014 7.6279101 0.65089893 3 -1
2.2323709 7.6643009 0.65299511 3 -1
2.2677841 7.6530905 0.66887432 3 -1
2.2693582 7.6732001 0.661569 3 -1
