# .PCD v0.7 - Point Cloud Data file format
VERSION 0.7
FIELDS x y z label
SIZE 4 4 4 4
TYPE F F F U
COUNT 1 1 1 1
WIDTH 1360
HEIGHT 1
VIEWPOINT 5.59997 7.00001 0.0997694 1 0 0 0
POINTS 1360
DATA ascii
7.1000562 8.0851412 0.69314533 2 -1
7.1035042 8.0052519 0.68121046 2 -1
7.1136074 7.9380159 0.67428833 2 -1
7.1221976 7.8776512 0.67060393 2 -1
7.1165657 7.8212867 0.67588544 2 -1
7.1138086 7.753942 0.67281896 2 -1
7.1122003 7.7180896 0.66351175 2 -1
7.0971503 7.6575155 0.66615784 2 -1
7.1025248 7.6227069 0.67008781 2 -1
7.1134186 7.5585189 0.66007626 2 -1
7.1181498 7.5132809 0.64615405 2 -1
7.1174207 7.4650807 0.66429132 2 -1
7.1129608 7.4020643 0.65027308 2 -1
7.1008782 7.3704004 0.64282238 2 -1
7.1128254 7.3323984 0.65761673 2 -1
7.1191273 7.2923136 0.65682781 2 -1
7.1106424 7.2477474 0.65381926 2 -1
7.1034002 7.1924114 0.64090419 2 -1
7.0975895 7.1604018 0.63698876 2 -1
7.1058393 7.1241107 0.65084571 2 -1
7.0912728 7.0826154 0.62607723 2 -1
7.0864487 7.0531621 0.63297904 2 -1
7.1063089 6.9979448 0.64474845 2 -1
7.0994248 6.9540949 0.63264853 2 -1
7.0960674 6.9076834 0.66060072 2 -1
7.1098986 6.8731375 0.62571084 2 -1
7.109468 6.8195934 0.65073407 2 -1
7.091711 6.7908201 0.65150732 2 -1
7.0937996 6.7431817 0.64722776 2 -1
7.0920768 6.6925182 0.63531995 2 -1
7.1103086 6.6529207 0.65997994 2 -1
7.086359 6.6124759 0.6451934 2 -1
7.1035371 6.5608244 0.65910512 2 -1
7.0826411 6.5186138 0.64374447 2 -1
7.0795231 6.4910617 0.65635037 2 -1
7.0822725 6.4401484 0.65097296 2 -1
7.1049881 6.3896856 0.66410828 2 -1
7.0881991 6.3317099 0.6625526 2 -1
7.0641012 6.2783647 0.66273671 2 -1
7.0743208 6.2320886 0.6674282 2 -1
7.0813761 6.1703992 0.66854042 2 -1
7.092782 6.1296625 0.67290753 2 -1
7.0948138 6.0678797 0.6845513 2 -1
7.0963717 6.0067554 0.67483675 2 -1
7.0878143 5.9525189 0.68376392 2 -1
7.0709834 5.8693581 0.68552071 2 -1
7.0595698 5.8002939 0.69989371 2 -1
7.0840149 5.7282143 0.70711219 2 -1
7.0578928 5.6359372 0.7203908 2 -1
7.0782108 5.5688047 0.73124731 2 -1
7.0811062 5.4808416 0.7257843 2 -1
7.0770864 5.4071178 0.74573469 2 -1
7.0835786 5.2807555 0.74464405 2 -1
7.0628099 5.1693344 0.76234937 2 -1
7.0609102 5.070231 0.75827861 2 -1
7.0820131 4.9419947 0.79049575 2 -1
7.0482635 4.7920885 0.8031925 2 -1
7.0988774 4.6579056 0.81360781 2 -1
7.1443853 9.3088064 0.87363046 2 -1
7.1382432 9.162343 0.86488497 2 -1
7.1341243 9.0146608 0.83618206 2 -1
7.1249456 8.8936014 0.83302414 2 -1
7.1390052 8.7654009 0.81570315 2 -1
7.1239471 8.6720695 0.79395688 2 -1
7.1123376 8.5667095 0.79145515 2 -1
7.1293297 8.4637794 0.78126377 2 -1
7.114038 8.3896475 0.76368964 2 -1
7.1104183 8.2829409 0.74098647 2 -1
7.1283026 8.2203665 0.75427568 2 -1
7.1240487 8.149828 0.74301219 2 -1
7.1190042 8.0634422 0.74838567 2 -1
7.1150398 8.001997 0.72538698 2 -1
7.1101384 7.9443245 0.72294486 2 -1
7.1150846 7.8905578 0.72736067 2 -1
7.1204062 7.8052211 0.71267956 2 -1
7.1011319 7.7608624 0.7252174 2 -1
7.1078305 7.6988144 0.6954397 2 -1
7.0987616 7.6501799 0.69396222 2 -1
7.0887275 7.6075439 0.6818465 2 -1
7.1109324 7.5630703 0.68911362 2 -1
7.1137934 7.5120549 0.70491016 2 -1
7.1037731 7.457931 0.69040036 2 -1
7.1232786 7.4281216 0.68007243 2 -1
7.1042409 7.3801517 0.67618144 2 -1
7.1243401 7.3349266 0.6824683 2 -1
7.0898004 7.2894654 0.6812008 2 -1
7.1012988 7.2442694 0.68813896 2 -1
7.0839477 7.1831236 0.68839854 2 -1
7.1133461 7.1562195 0.66998166 2 -1
7.1030874 7.1236272 0.66342992 2 -1
7.0983777 7.0765886 0.67341769 2 -1
7.1056938 7.0382586 0.68397278 2 -1
7.1041508 6.992342 0.67801517 2 -1
7.1063232 6.9630699 0.66771233 2 -1
7.0971594 6.9081206 0.6752128 2 -1
7.1004572 6.8427191 0.66595632 2 -1
7.0975852 6.8472171 0.68376809 2 -1
7.0986781 6.7840166 0.67651141 2 -1
7.0829797 6.7655497 0.68704307 2 -1
7.0941515 6.6948872 0.69801563 2 -1
7.0923967 6.6770058 0.68184912 2 -1
7.0815978 6.6193781 0.68346345 2 -1
7.0818272 6.577558 0.68886918 2 -1
7.0949631 6.5217695 0.69506729 2 -1
7.0973487 6.4784374 0.68110621 2 -1
7.079618 6.4342728 0.68931687 2 -1
7.0982661 6.3738737 0.70124543 2 -1
7.0760174 6.3358769 0.69577408 2 -1
7.080524 6.2852597 0.69624281 2 -1
7.0799036 6.2400961 0.70845091 2 -1
7.0766001 6.1915526 0.70299035 2 -1
7.0694733 6.1402678 0.69356596 2 -1
7.0899558 6.0614457 0.70604932 2 -1
7.0832038 6.0008326 0.73487484 2 -1
7.0718856 5.9461212 0.74115133 2 -1
7.0565376 5.8640375 0.73026657 2 -1
7.0569983 5.8058324 0.72658002 2 -1
7.0706382 5.721128 0.74421746 2 -1
7.0701056 5.640883 0.75199312 2 -1
7.0729346 5.5479531 0.76625651 2 -1
7.0649438 5.4935036 0.76419514 2 -1
7.0552497 5.3827057 0.77305007 2 -1
7.0598116 5.2748842 0.79368627 2 -1
7.0758305 5.194705 0.80357111 2 -1
7.0609865 5.0714169 0.82842684 2 -1
7.0608292 4.9503107 0.84394169 2 -1
7.0721016 4.7829461 0.84862196 2 -1
7.1093044 4.6588745 0.88779569 2 -1
7.1368237 9.3015881 0.93316793 2 -1
7.143959 9.1623459 0.92654836 2 -1
7.1237969 9.0136957 0.90198743 2 -1
7.1261969 8.8683863 0.85762185 2 -1
7.1454396 8.756979 0.86632091 2 -1
7.115366 8.6606092 0.8543694 2 -1
7.110539 8.5627356 0.83347613 2 -1
7.1126938 8.4673281 0.80921817 2 -1
7.1058102 8.3729868 0.79941505 2 -1
7.1232405 8.2897263 0.79315382 2 -1
7.1094036 8.2204552 0.76962012 2 -1
7.1242065 8.135252 0.76235652 2 -1
7.1293836 8.0642166 0.79235923 2 -1
7.1142693 8.0109663 0.75792712 2 -1
7.1019635 7.9455514 0.75259626 2 -1
7.1262321 7.8929372 0.77032453 2 -1
7.1009808 7.8283243 0.73464382 2 -1
7.1215219 7.7720518 0.73666203 2 -1
7.0998163 7.7059922 0.72894418 2 -1
7.0817542 7.6521983 0.7656641 2 -1
7.1067867 7.5863266 0.7440955 2 -1
7.1173968 7.557116 0.72568649 2 -1
7.0972352 7.5056686 0.70519185 2 -1
7.0960431 7.4756713 0.6916346 2 -1
7.1108351 7.4178867 0.71867794 2 -1
7.1010475 7.3574681 0.71603 2 -1
7.0911207 7.3349051 0.72023344 2 -1
7.133503 7.2806001 0.68996269 2 -1
7.122077 7.2447195 0.69879091 2 -1
7.1094894 7.1906147 0.71406293 2 -1
7.1020451 7.1622481 0.71011305 2 -1
7.1056881 7.1167493 0.70441896 2 -1
7.1050487 7.0823684 0.70714176 2 -1
7.0845003 7.0260887 0.70341033 2 -1
7.0923815 6.9933896 0.71562451 2 -1
7.0968046 6.9538746 0.69792342 2 -1
7.1075172 6.9029098 0.71968234 2 -1
7.101047 6.8790603 0.68802279 2 -1
7.100657 6.7999787 0.69601583 2 -1
7.0941696 6.7884917 0.70811915 2 -1
7.1059222 6.7499371 0.71525657 2 -1
7.0790725 6.7056422 0.7190699 2 -1
7.0813751 6.6676855 0.70845252 2 -1
7.1199617 6.6068845 0.70025361 2 -1
7.0916615 6.5832705 0.72579116 2 -1
7.0763683 6.5417829 0.70930958 2 -1
7.1038704 6.4836817 0.73359317 2 -1
7.0748372 6.4238944 0.71091294 2 -1
7.0854025 6.3856854 0.72624719 2 -1
7.1002727 6.3346949 0.73005056 2 -1
7.0955839 6.2887011 0.71881139 2 -1
7.0851393 6.2381091 0.74906814 2 -1
7.0809135 6.1817718 0.75367987 2 -1
7.0715609 6.1408639 0.74308288 2 -1
7.0684695 6.090867 0.74056435 2 -1
7.0938044 6.011425 0.76103991 2 -1
7.0652976 5.96453 0.75901473 2 -1
7.0908494 5.8752079 0.78688359 2 -1
7.058732 5.8058767 0.77400577 2 -1
7.0605898 5.730679 0.80363691 2 -1
7.0692329 5.6534152 0.81153584 2 -1
7.0614386 5.57937 0.80373198 2 -1
7.070322 5.4964495 0.81553435 2 -1
7.0731311 5.3912067 0.82286179 2 -1
7.0586615 5.2965603 0.83017421 2 -1
7.070672 5.196393 0.86076099 2 -1
7.0627289 5.0362244 0.8707251 2 -1
7.0605178 4.939364 0.89961004 2 -1
7.043601 4.8053141 0.91134822 2 -1
7.0797567 4.6640329 0.9393307 2 -1
7.1320863 9.3035622 0.98759818 2 -1
7.1226978 9.1528473 0.94815433 2 -1
7.1362834 9.0130529 0.94521612 2 -1
7.1213555 8.8907766 0.95416296 2 -1
7.1363354 8.7774019 0.91062343 2 -1
7.1464272 8.6543865 0.89125824 2 -1
7.1258221 8.5489769 0.88986969 2 -1
7.1217036 8.4457903 0.87587589 2 -1
7.1088676 8.3871841 0.85705721 2 -1
7.136054 8.2913809 0.83667064 2 -1
7.1126957 8.2049417 0.82133114 2 -1
7.1236916 8.1341515 0.80939138 2 -1
7.1141291 8.0606499 0.80025244 2 -1
7.14115 8.0053101 0.77972972 2 -1
7.1201611 7.9446068 0.80741584 2 -1
7.1009965 7.8707576 0.78418946 2 -1
7.1170444 7.8042035 0.78369367 2 -1
7.1168799 7.7672887 0.75814855 2 -1
7.0946078 7.7224121 0.73996365 2 -1
7.1195555 7.6554751 0.7522409 2 -1
7.1007357 7.6138535 0.75778931 2 -1
7.1310344 7.5577583 0.76461345 2 -1
7.101655 7.5076246 0.75742364 2 -1
7.1002045 7.4498782 0.74606252 2 -1
7.0912914 7.4180365 0.74356639 2 -1
7.09587 7.3764429 0.74503428 2 -1
7.0849094 7.3308482 0.72423816 2 -1
7.1056857 7.283855 0.77012873 2 -1
7.1104074 7.2531314 0.72635925 2 -1
7.0975876 7.2047796 0.74996978 2 -1
7.1223359 7.1532121 0.72543758 2 -1
7.1138673 7.1372209 0.7433365 2 -1
7.0940385 7.0592141 0.72995484 2 -1
7.093708 7.0410328 0.72658348 2 -1
7.0982695 6.9790759 0.73975253 2 -1
7.1093259 6.9374795 0.72710693 2 -1
7.1011319 6.9161768 0.76357615 2 -1
7.0932903 6.8545847 0.72452426 2 -1
7.0904365 6.8327355 0.7353847 2 -1
7.0755863 6.7951813 0.74615711 2 -1
7.0893636 6.7449627 0.72953892 2 -1
7.0869808 6.6973996 0.73381144 2 -1
7.0869007 6.6639194 0.73795575 2 -1
7.079474 6.6111836 0.73641407 2 -1
7.0889788 6.5599213 0.75173283 2 -1
7.0806112 6.5170112 0.75808901 2 -1
7.0682535 6.4696088 0.74350053 2 -1
7.1013784 6.4361024 0.77545428 2 -1
7.0770888 6.3761868 0.75636852 2 -1
7.0913601 6.3358364 0.76889139 2 -1
7.0934238 6.2901411 0.75566185 2 -1
7.0850983 6.2205763 0.78065771 2 -1
7.0798974 6.1878324 0.77369213 2 -1
7.0792141 6.1257482 0.79101717 2 -1
7.0682669 6.0549664 0.77262866 2 -1
7.0794086 5.9901147 0.80161393 2 -1
7.0698271 5.9163065 0.78854108 2 -1
7.0789695 5.8680134 0.80645108 2 -1
7.0800886 5.805675 0.81176299 2 -1
7.0587549 5.7292213 0.82677037 2 -1
7.0666728 5.6474299 0.82252765 2 -1
7.0645609 5.5707951 0.84180439 2 -1
7.0771418 5.4949369 0.84611547 2 -1
7.074317 5.4021268 0.87782258 2 -1
7.0626936 5.3017955 0.88229251 2 -1
7.0654907 5.1923151 0.90914178 2 -1
7.0548267 5.0533628 0.93615699 2 -1
7.0486789 4.9613142 0.96424705 2 -1
7.0543323 4.8038263 0.9639132 2 -1
7.0837722 4.6723013 0.9807812 2 -1
7.1389189 9.3111382 1.0394877 2 -1
7.1358786 9.1566839 1.026742 2 -1
7.1426573 9.0203514 1.0041788 2 -1
7.1521931 8.8847866 0.98213041 2 -1
7.1231575 8.7711754 0.94495422 2 -1
7.1182604 8.6467009 0.95896614 2 -1
7.1300945 8.5794296 0.91339839 2 -1
7.1266751 8.4551373 0.9116115 2 -1
7.1220336 8.3787222 0.8857426 2 -1
7.1349993 8.2922192 0.88142943 2 -1
7.1229162 8.2213774 0.85986686 2 -1
7.1142216 8.1411648 0.85580242 2 -1
7.1070814 8.0673351 0.84098655 2 -1
7.1170521 8.0193386 0.84078836 2 -1
7.119895 7.9529366 0.83126402 2 -1
7.1118622 7.8850126 0.84976602 2 -1
7.1323352 7.825448 0.810624 2 -1
7.1097698 7.7488689 0.80807626 2 -1
7.1089964 7.7067852 0.82166493 2 -1
7.0995474 7.6645608 0.77195853 2 -1
7.1349902 7.6046066 0.79483652 2 -1
7.118259 7.5375118 0.77927041 2 -1
7.0939789 7.515686 0.78960586 2 -1
7.1090899 7.448422 0.7788164 2 -1
7.1065588 7.3940506 0.79510379 2 -1
7.1131887 7.352211 0.79359835 2 -1
7.1044683 7.3294463 0.77244949 2 -1
7.1090183 7.306622 0.75734043 2 -1
7.1058211 7.2380753 0.77790409 2 -1
7.1086373 7.1997662 0.77762747 2 -1
7.1085196 7.1486349 0.78469181 2 -1
7.1071143 7.0966735 0.74661118 2 -1
7.1038756 7.0777478 0.769449 2 -1
7.100965 7.0279531 0.7712428 2 -1
7.1107006 7.0156517 0.75627059 2 -1
7.1088729 6.9692173 0.77718669 2 -1
7.1023254 6.9340591 0.76699698 2 -1
7.0979428 6.8700213 0.76079416 2 -1
7.0785246 6.8303947 0.77246153 2 -1
7.1029582 6.7975039 0.77008635 2 -1
7.0849471 6.7512317 0.76470613 2 -1
7.1073127 6.708158 0.75653893 2 -1
7.0929513 6.6718745 0.76853734 2 -1
7.0852394 6.6174655 0.78508615 2 -1
7.0905161 6.5664296 0.77385128 2 -1
7.1004257 6.5311208 0.79176188 2 -1
7.0835357 6.4837027 0.78438318 2 -1
7.0657129 6.4411168 0.78292894 2 -1
7.1008453 6.3841662 0.77637064 2 -1
7.067915 6.3259563 0.79344356 2 -1
7.0822167 6.2918687 0.80828089 2 -1
7.0806618 6.2314219 0.80329382 2 -1
7.0726566 6.1872206 0.80624783 2 -1
7.0760312 6.1325965 0.82840097 2 -1
7.0739269 6.0773129 0.84748733 2 -1
7.080018 6.0103855 0.84066141 2 -1
7.075438 5.9321671 0.83766288 2 -1
7.063405 5.8711386 0.84734619 2 -1
7.0792446 5.7978172 0.84151518 2 -1
7.0719476 5.7364531 0.8815881 2 -1
7.0903511 5.6589179 0.87409139 2 -1
7.0771747 5.5751667 0.89839226 2 -1
7.0607395 5.4876242 0.91701496 2 -1
7.0537672 5.404479 0.91513622 2 -1
7.0613985 5.2964382 0.94475663 2 -1
7.0658445 5.1622572 0.94553864 2 -1
7.0675898 5.0712781 0.98326337 2 -1
7.0581541 4.9332943 1.0004754 2 -1
7.0485716 4.7777734 1.0056932 2 -1
7.0836182 4.6590271 1.0690817 2 -1
7.1340814 9.3240547 1.1370887 2 -1
7.1494427 9.1477118 1.0852515 2 -1
7.1227875 9.0272951 1.0666411 2 -1
7.128489 8.8722134 1.0360912 2 -1
7.1316428 8.7897987 1.0252105 2 -1
7.1207204 8.6698265 0.99534428 2 -1
7.11444 8.5428123 0.98932886 2 -1
7.1237078 8.4599733 0.964647 2 -1
7.116416 8.3945541 0.94326162 2 -1
7.1171594 8.2852278 0.94628847 2 -1
7.11555 8.2005873 0.92060614 2 -1
7.1380353 8.1403217 0.90125251 2 -1
7.1237907 8.0791759 0.89502013 2 -1
7.1152811 7.9908252 0.8598845 2 -1
7.1065073 7.927886 0.87295991 2 -1
7.1098881 7.8675518 0.86813736 2 -1
7.1038113 7.825983 0.87320548 2 -1
7.1065869 7.7861538 0.85859215 2 -1
7.1116362 7.7025313 0.84792531 2 -1
7.1047812 7.6672583 0.82965297 2 -1
7.114697 7.6080656 0.82364094 2 -1
7.1171436 7.5721302 0.80768311 2 -1
7.0954351 7.4890828 0.8065697 2 -1
7.1238785 7.4483948 0.82942724 2 -1
7.1056576 7.4315538 0.80058545 2 -1
7.0997295 7.358284 0.81299376 2 -1
7.0976801 7.3333745 0.80824435 2 -1
7.1003962 7.281661 0.80057442 2 -1
7.1008592 7.2620544 0.80573088 2 -1
7.0778551 7.2024269 0.77275574 2 -1
7.0857277 7.1679559 0.78744614 2 -1
7.1039891 7.1092286 0.78580737 2 -1
7.1010246 7.078536 0.79235494 2 -1
7.1065483 7.0361705 0.79402643 2 -1
7.0838137 6.9942303 0.80308628 2 -1
7.0998044 6.951447 0.7940557 2 -1
7.078125 6.9234729 0.7969687 2 -1
7.0883536 6.8873062 0.78125364 2 -1
7.0937376 6.8296838 0.79470223 2 -1
7.0833712 6.8010526 0.7890259 2 -1
7.0983372 6.7549376 0.78593087 2 -1
7.0985112 6.6970062 0.81263745 2 -1
7.1016769 6.6573024 0.79626942 2 -1
7.0850477 6.6134744 0.80491668 2 -1
7.0710707 6.5891738 0.794438 2 -1
7.0826569 6.5145173 0.82606936 2 -1
7.0786371 6.46908 0.81412351 2 -1
7.095263 6.4341502 0.80541337 2 -1
7.0917358 6.3870811 0.81924438 2 -1
7.1009293 6.3488264 0.81749785 2 -1
7.0820913 6.2912331 0.82186145 2 -1
7.1085215 6.2390842 0.8422718 2 -1
7.0932164 6.1809444 0.84056681 2 -1
7.0783052 6.1209259 0.85634834 2 -1
7.0704169 6.0622964 0.86756396 2 -1
7.0812273 6.0115466 0.86709183 2 -1
7.0682077 5.9539604 0.87158704 2 -1
7.0740671 5.8625174 0.87146819 2 -1
7.0736804 5.8070364 0.88296759 2 -1
7.0619335 5.7217765 0.90049702 2 -1
7.0684791 5.668766 0.92067671 2 -1
7.08251 5.5883503 0.95123589 2 -1
7.0836029 5.4997406 0.94556189 2 -1
7.0734925 5.3928757 0.96644354 2 -1
7.0728045 5.300354 0.98468447 2 -1
7.0661554 5.1857357 0.99911249 2 -1
7.0618172 5.0593028 1.0296799 2 -1
7.06493 4.92484 1.0452694 2 -1
7.037158 4.784667 1.080035 2 -1
7.0993156 4.6633406 1.1171987 2 -1
7.1399298 9.3249912 1.1887604 2 -1
7.1503325 9.145113 1.1499405 2 -1
7.1335077 9.0164261 1.1001948 2 -1
7.1130033 8.8752089 1.091009 2 -1
7.1248174 8.7726421 1.0640675 2 -1
7.1382785 8.6526527 1.0308007 2 -1
7.1231461 8.5626717 1.009539 2 -1
7.1145759 8.434741 1.0044544 2 -1
7.1229253 8.3820667 0.9733907 2 -1
7.1153793 8.2809553 0.97335589 2 -1
7.1289582 8.1950998 0.9578073 2 -1
7.1357465 8.1573591 0.94491613 2 -1
7.1299515 8.0703239 0.92668951 2 -1
7.1108561 8.0086479 0.89387381 2 -1
7.1197701 7.9465499 0.91706812 2 -1
7.1222315 7.8687396 0.89778268 2 -1
7.1070461 7.815414 0.89457607 2 -1
7.1120167 7.762682 0.86722624 2 -1
7.1136675 7.7182751 0.88433081 2 -1
7.1056018 7.6654339 0.88621163 2 -1
7.0843706 7.6088338 0.8608166 2 -1
7.1047454 7.5671406 0.84460628 2 -1
7.1058264 7.5029421 0.86024714 2 -1
7.1090822 7.4583287 0.85415173 2 -1
7.0978684 7.4279504 0.84975398 2 -1
7.1051135 7.3660235 0.84609473 2 -1
7.0935469 7.3315372 0.83760655 2 -1
7.1006432 7.2757792 0.84376729 2 -1
7.1027398 7.2538414 0.8233906 2 -1
7.0915422 7.2057161 0.83030236 2 -1
7.0999084 7.1609912 0.82173216 2 -1
7.1055183 7.1114264 0.81743568 2 -1
7.0960231 7.068305 0.83994937 2 -1
7.0909286 7.0502739 0.8237313 2 -1
7.0968728 6.9837351 0.82345533 2 -1
7.0899906 6.9537778 0.81240451 2 -1
7.0999613 6.9341192 0.8311888 2 -1
7.0922432 6.8737717 0.80887711 2 -1
7.0911932 6.8291178 0.81675541 2 -1
7.0907707 6.7794733 0.82179737 2 -1
7.0866261 6.7523093 0.82006311 2 -1
7.1059961 6.7112055 0.84433925 2 -1
7.0824499 6.6640472 0.83845621 2 -1
7.1115532 6.609098 0.8382383 2 -1
7.0867844 6.5827308 0.84007841 2 -1
7.0849404 6.5117393 0.84523338 2 -1
7.0894141 6.4911551 0.84608042 2 -1
7.0960913 6.4399352 0.86253321 2 -1
7.1053572 6.3879523 0.86136591 2 -1
7.0866418 6.33355 0.86533332 2 -1
7.0774803 6.2926087 0.86742735 2 -1
7.0839462 6.2502956 0.87427843 2 -1
7.0809712 6.1925316 0.87756664 2 -1
7.0574951 6.1366343 0.9058733 2 -1
7.0588341 6.0575595 0.89131856 2 -1
7.0673971 5.9968386 0.89555788 2 -1
7.067987 5.9502773 0.9091388 2 -1
7.0728054 5.878861 0.90871453 2 -1
7.085927 5.820425 0.93101549 2 -1
7.0808253 5.7386961 0.96418321 2 -1
7.0717325 5.6601028 0.95981109 2 -1
7.0794611 5.5652475 0.94984591 2 -1
7.0347714 5.4845619 0.99641478 2 -1
7.0738163 5.3930507 1.0233858 2 -1
7.0481443 5.285223 1.0453889 2 -1
7.0724087 5.1865549 1.0540644 2 -1
7.0704956 5.0569363 1.081992 2 -1
7.0565195 4.9451704 1.1159463 2 -1
7.037632 4.8195047 1.140149 2 -1
7.0798903 4.6731024 1.1799392 2 -1
7.1335888 9.3031292 1.2373867 2 -1
7.1561723 9.1447735 1.2109189 2 -1
7.161243 8.9875927 1.1728462 2 -1
7.1220703 8.8789654 1.1640346 2 -1
7.1145096 8.7703676 1.1285714 2 -1
7.1347785 8.6360445 1.0747454 2 -1
7.1230774 8.5631981 1.0501318 2 -1
7.1311378 8.4700775 1.0517634 2 -1
7.1205769 8.3580923 1.0319693 2 -1
7.104197 8.2856979 1.0042155 2 -1
7.1159825 8.2084799 0.98434842 2 -1
7.114532 8.1427517 0.97702813 2 -1
7.0977526 8.0610676 0.96244502 2 -1
7.1034513 7.9711237 0.95828855 2 -1
7.0969682 7.9460688 0.94299948 2 -1
7.1144748 7.8916798 0.93072677 2 -1
7.1140838 7.8247113 0.91847634 2 -1
7.116868 7.7657619 0.89999127 2 -1
7.1191092 7.7118669 0.91181314 2 -1
7.1205115 7.6520429 0.91960466 2 -1
7.1205797 7.599627 0.89702308 2 -1
7.1104097 7.5666223 0.89544916 2 -1
7.1058636 7.5125275 0.88786757 2 -1
7.1074247 7.4673729 0.88880348 2 -1
7.112422 7.4252968 0.87040544 2 -1
7.104249 7.3744373 0.87743378 2 -1
7.0936236 7.3365879 0.86401904 2 -1
7.0951371 7.2680569 0.86983204 2 -1
7.0940657 7.2431769 0.86492956 2 -1
7.1080389 7.199429 0.85576695 2 -1
7.1000695 7.1679835 0.87384874 2 -1
7.1121316 7.1317139 0.85419178 2 -1
7.0816736 7.0716276 0.85418475 2 -1
7.102767 7.0240054 0.83375847 2 -1
7.0812583 7.0092621 0.86752689 2 -1
7.0875473 6.9555888 0.85908723 2 -1
7.0997953 6.9041686 0.85508305 2 -1
7.0828619 6.8641672 0.84772384 2 -1
7.0944977 6.8410759 0.84770977 2 -1
7.094625 6.7849236 0.85622692 2 -1
7.0908728 6.7735257 0.85821283 2 -1
7.0958028 6.7195187 0.86085176 2 -1
7.0956836 6.6614952 0.87196857 2 -1
7.0908079 6.6183772 0.86298895 2 -1
7.0908599 6.5747337 0.86938024 2 -1
7.0955153 6.5334744 0.8570255 2 -1
7.0928335 6.4968672 0.87816918 2 -1
7.0939178 6.4310579 0.88813663 2 -1
7.0932131 6.3828344 0.89125896 2 -1
7.0696812 6.3534126 0.90375209 2 -1
7.0858517 6.29988 0.89084244 2 -1
7.0821733 6.2287908 0.88547814 2 -1
7.0626583 6.1679554 0.91566283 2 -1
7.0860453 6.1335726 0.92976022 2 -1
7.0827594 6.0694542 0.9309895 2 -1
7.0800033 6.006783 0.93535972 2 -1
7.0671759 5.9490561 0.95888001 2 -1
7.0685701 5.8783894 0.97331786 2 -1
7.0605083 5.8029413 0.98812771 2 -1
7.0832415 5.7250638 1.0146283 2 -1
7.0741386 5.6714497 0.99692047 2 -1
7.0754519 5.5737004 1.0125177 2 -1
7.0698247 5.4849062 1.0332346 2 -1
7.0639982 5.388278 1.0522622 2 -1
7.0753546 5.2981005 1.0752783 2 -1
7.0752039 5.1843071 1.0906465 2 -1
7.0490823 5.0571313 1.1486269 2 -1
7.0715013 4.9460096 1.1808276 2 -1
7.0416865 4.7920012 1.2060888 2 -1
7.0882454 4.6605806 1.2156253 2 -1
7.1320848 9.3084707 1.2969077 2 -1
7.1571369 9.1541901 1.2651891 2 -1
7.1276121 9.0156136 1.2049015 2 -1
7.1444035 8.8864059 1.1922541 2 -1
7.1130562 8.7355909 1.1618924 2 -1
7.1088305 8.6735172 1.1386912 2 -1
7.1378779 8.5624523 1.1319581 2 -1
7.1284771 8.4645014 1.0953456 2 -1
7.1198196 8.3811951 1.0747591 2 -1
7.1142721 8.2830067 1.0495704 2 -1
7.1231074 8.2152634 1.0392598 2 -1
7.1068072 8.123229 1.0169032 2 -1
7.1141143 8.0808926 1.0133507 2 -1
7.1155505 7.9990649 0.99634683 2 -1
7.0900564 7.9448581 0.99958169 2 -1
7.1087461 7.8823934 0.98763812 2 -1
7.107862 7.8375344 0.97695935 2 -1
7.1154523 7.7598953 0.94371247 2 -1
7.1023374 7.7159762 0.93749106 2 -1
7.1185036 7.6717973 0.94211471 2 -1
7.0984106 7.6267567 0.93370032 2 -1
7.0968294 7.5514235 0.93053758 2 -1
7.1014724 7.5258207 0.93225765 2 -1
7.0972338 7.4683752 0.93550581 2 -1
7.106966 7.4143343 0.91894972 2 -1
7.101109 7.3805313 0.90690982 2 -1
7.1004801 7.3336205 0.89549541 2 -1
7.0850897 7.2860098 0.92236423 2 -1
7.0890112 7.236989 0.89733523 2 -1
7.0923367 7.2169018 0.8892175 2 -1
7.0871072 7.158896 0.89906055 2 -1
7.0891218 7.1136236 0.89408898 2 -1
7.1004577 7.0678024 0.89933723 2 -1
7.1198101 7.0308833 0.89010483 2 -1
7.0995612 6.9936543 0.89708102 2 -1
7.0951457 6.9567523 0.88604271 2 -1
7.0873079 6.8837271 0.88586032 2 -1
7.0856743 6.8588333 0.89186287 2 -1
7.0798197 6.8267202 0.8833676 2 -1
7.0996337 6.7876725 0.89387298 2 -1
7.0937481 6.7364531 0.89867419 2 -1
7.0987625 6.6888485 0.88995332 2 -1
7.0761738 6.6688838 0.91020381 2 -1
7.0873456 6.6275845 0.91237062 2 -1
7.0786095 6.5736141 0.89325607 2 -1
7.0999708 6.5164185 0.89953256 2 -1
7.082407 6.470089 0.91759229 2 -1
7.0681815 6.4623375 0.90010214 2 -1
7.0928264 6.3855305 0.94181168 2 -1
7.0706329 6.3356638 0.92379665 2 -1
7.0631609 6.2610364 0.92083216 2 -1
7.0672011 6.2433357 0.95124137 2 -1
7.0902686 6.1851001 0.96080291 2 -1
7.0813317 6.143858 0.96167517 2 -1
7.0725422 6.0633206 0.96392292 2 -1
7.085453 6.0178852 0.9744612 2 -1
7.0891943 5.9507346 0.97669566 2 -1
7.0699739 5.8906841 0.99758053 2 -1
7.0867734 5.8119783 1.0346844 2 -1
7.0614796 5.7186718 1.0295889 2 -1
7.0798674 5.6447725 1.0585806 2 -1
7.0504909 5.5652046 1.0710316 2 -1
7.0763593 5.4844589 1.0768049 2 -1
7.0708313 5.3754959 1.1138529 2 -1
7.0782847 5.3109674 1.1310879 2 -1
7.0685263 5.1823578 1.1616205 2 -1
7.0489073 5.0644112 1.190827 2 -1
7.0690403 4.9236879 1.2142129 2 -1
7.0512753 4.814765 1.2631278 2 -1
7.0874667 4.6554842 1.293836 2 -1
7.1275463 9.2927494 1.3811673 2 -1
7.1459193 9.1504869 1.3210834 2 -1
7.1266642 9.0136003 1.2702589 2 -1
7.1516595 8.8854704 1.2410349 2 -1
7.1413579 8.7761211 1.2268233 2 -1
7.136096 8.6654749 1.1837369 2 -1
7.1122866 8.5589724 1.1501596 2 -1
7.1184731 8.4584608 1.1464814 2 -1
7.1126184 8.3609953 1.1230227 2 -1
7.1322994 8.2964983 1.0890958 2 -1
7.1214447 8.1977797 1.0908942 2 -1
7.1166811 8.1441803 1.0566598 2 -1
7.1069102 8.0612383 1.0586363 2 -1
7.1281509 7.9827232 1.0363922 2 -1
7.1068916 7.9270105 1.0155644 2 -1
7.1112366 7.8680139 1.020394 2 -1
7.1208038 7.8243837 0.98154128 2 -1
7.1138039 7.7608905 0.99380469 2 -1
7.1047344 7.6981473 0.9875679 2 -1
7.1250792 7.6576886 0.97055066 2 -1
7.1082935 7.6064787 0.95064235 2 -1
7.1087837 7.5617971 0.95089936 2 -1
7.1011243 7.5162191 0.97378802 2 -1
7.1122866 7.4400754 0.95531309 2 -1
7.0959864 7.3956108 0.95105064 2 -1
7.1161914 7.3715835 0.91939652 2 -1
7.0995603 7.3222346 0.93560624 2 -1
7.1057825 7.279315 0.92783213 2 -1
7.0848522 7.2427931 0.93066108 2 -1
7.1115065 7.2269444 0.93996394 2 -1
7.1018605 7.1621504 0.91131699 2 -1
7.1099691 7.1100597 0.92017126 2 -1
7.0954294 7.0756755 0.90418601 2 -1
7.0852795 7.0561829 0.92024851 2 -1
7.1065655 6.9935145 0.93400908 2 -1
7.1021099 6.9834318 0.91932476 2 -1
7.0868855 6.9126444 0.92264128 2 -1
7.0946474 6.8612943 0.92393875 2 -1
7.0970411 6.8144836 0.90764165 2 -1
7.1066427 6.7768497 0.91555691 2 -1
7.0862823 6.7500105 0.94750428 2 -1
7.1030903 6.7090173 0.9333607 2 -1
7.0922289 6.6530342 0.94344974 2 -1
7.0813608 6.6086135 0.93845153 2 -1
7.0751944 6.5607538 0.9305504 2 -1
7.1057811 6.5276442 0.93131262 2 -1
7.1028333 6.4896221 0.94965041 2 -1
7.0885744 6.4437618 0.94565129 2 -1
7.0783615 6.3812537 0.95694274 2 -1
7.0898771 6.3319468 0.96277767 2 -1
7.0797939 6.2986841 0.96219254 2 -1
7.0863533 6.2283621 0.9871347 2 -1
7.0819893 6.1767993 0.98617804 2 -1
7.062398 6.1245193 0.98764837 2 -1
7.0664606 6.0632334 1.0067672 2 -1
7.0631504 6.0131211 1.0139817 2 -1
7.0743132 5.9546556 1.0423549 2 -1
7.0761261 5.880229 1.0365181 2 -1
7.0690231 5.8117514 1.0577544 2 -1
7.0744634 5.7244968 1.0840712 2 -1
7.0710979 5.660603 1.0849267 2 -1
7.0621338 5.5825768 1.1173288 2 -1
7.0757933 5.484129 1.1437211 2 -1
7.077991 5.4098387 1.1497126 2 -1
7.0731783 5.2846441 1.1787262 2 -1
7.0726433 5.1796269 1.2022941 2 -1
7.0574617 5.0908475 1.237317 2 -1
7.0634952 4.952507 1.2791581 2 -1
7.0566463 4.7961731 1.3105049 2 -1
7.0871925 4.6677189 1.3578694 2 -1
7.1377745 9.2875729 1.4123064 2 -1
7.1378746 9.1374512 1.3885288 2 -1
7.1361036 8.9955835 1.3262435 2 -1
7.1431904 8.8863802 1.2994888 2 -1
7.1111698 8.7564812 1.256479 2 -1
7.1089888 8.6628046 1.2298687 2 -1
7.1280847 8.5721579 1.2138189 2 -1
7.115602 8.4601088 1.1917849 2 -1
7.097147 8.3750143 1.1562091 2 -1
7.110281 8.2967339 1.1385868 2 -1
7.1236987 8.2148018 1.1311655 2 -1
7.1137161 8.1544952 1.1036747 2 -1
7.1125741 8.07512 1.0881454 2 -1
7.1159582 8.0048685 1.0767312 2 -1
7.106554 7.9421988 1.0607858 2 -1
7.1230698 7.8939905 1.0336876 2 -1
7.106595 7.8181624 1.0355773 2 -1
7.1089363 7.7661581 1.0287722 2 -1
7.116662 7.7102838 1.011873 2 -1
7.1336107 7.6608834 1.0055707 2 -1
7.1172838 7.6135063 0.99315441 2 -1
7.1071057 7.5565333 0.98981369 2 -1
7.1144733 7.5078979 0.98474133 2 -1
7.1031551 7.4760218 0.99600756 2 -1
7.1130304 7.4314241 1.0017797 2 -1
7.0835419 7.37082 0.9786222 2 -1
7.0978971 7.3179183 0.97483885 2 -1
7.1042929 7.2799382 0.95505166 2 -1
7.0989017 7.2353177 0.97841597 2 -1
7.0968122 7.2082248 0.96032226 2 -1
7.1139231 7.1716504 0.95573384 2 -1
7.0908833 7.1062799 0.9445042 2 -1
7.102438 7.0736985 0.95019698 2 -1
7.0874949 7.0178056 0.94267762 2 -1
7.0872536 6.9898362 0.95773172 2 -1
7.105773 6.9359837 0.95339149 2 -1
7.0920959 6.9181919 0.96039164 2 -1
7.1086254 6.8765635 0.95685726 2 -1
7.0921383 6.8341308 0.94546378 2 -1
7.093226 6.7866244 0.95970309 2 -1
7.094378 6.7416806 0.96964365 2 -1
7.1004419 6.7040682 0.96858931 2 -1
7.0896788 6.6666265 0.94785047 2 -1
7.0922351 6.638382 0.97360682 2 -1
7.0724545 6.5762472 0.97124612 2 -1
7.0821924 6.5301771 0.97352731 2 -1
7.0747075 6.4793825 0.97731555 2 -1
7.082696 6.4444237 0.99038589 2 -1
7.0606313 6.3837757 0.9894048 2 -1
7.0952315 6.3376403 0.98508668 2 -1
7.0929475 6.2808127 1.0091608 2 -1
7.0818415 6.2289319 1.0142003 2 -1
7.0866752 6.1775393 1.0241306 2 -1
7.0993695 6.1282573 1.0208746 2 -1
7.0581484 6.0600324 1.0408493 2 -1
7.0780349 6.0185466 1.0477679 2 -1
7.0696769 5.9447479 1.0709699 2 -1
7.0869141 5.8840466 1.068499 2 -1
7.0848913 5.8287592 1.1042758 2 -1
7.0745268 5.7292414 1.1222044 2 -1
7.0799513 5.6516466 1.14633 2 -1
7.0636201 5.5779858 1.1602234 2 -1
7.0815935 5.4749904 1.1746571 2 -1
7.0729098 5.4142504 1.2003685 2 -1
7.0579853 5.2894959 1.2443228 2 -1
7.0571275 5.1765914 1.2606653 2 -1
7.0367079 5.0726995 1.2868153 2 -1
7.0772924 4.9342146 1.3399978 2 -1
7.0537515 4.7999196 1.3569555 2 -1
7.0734963 4.653635 1.4168582 2 -1
7.1321206 9.2880793 1.4841814 2 -1
7.1198244 9.1293535 1.4284867 2 -1
7.1269541 9.0024929 1.4017332 2 -1
7.1357689 8.8745518 1.3750272 2 -1
7.1329479 8.7543945 1.299915 2 -1
7.1147132 8.6507521 1.2968842 2 -1
7.1495533 8.5714445 1.2672658 2 -1
7.1268187 8.4485655 1.225951 2 -1
7.1081123 8.3548174 1.2191956 2 -1
7.1387405 8.3166265 1.1869888 2 -1
7.1189737 8.2069092 1.1750448 2 -1
7.1187181 8.1496162 1.1366353 2 -1
7.1206365 8.0739098 1.1344472 2 -1
7.1072044 8.0038338 1.1185166 2 -1
7.1012106 7.9347072 1.1015964 2 -1
7.1092339 7.872479 1.0999228 2 -1
7.119905 7.8088999 1.0653287 2 -1
7.1037469 7.7713304 1.0656546 2 -1
7.1308222 7.6927609 1.0553519 2 -1
7.1171885 7.6502938 1.0358164 2 -1
7.1036739 7.6285939 1.0458486 2 -1
7.1115775 7.5590229 1.0365331 2 -1
7.0958109 7.5047174 1.016151 2 -1
7.1012468 7.4836378 1.0079445 2 -1
7.1000843 7.4177895 0.98935473 2 -1
7.0968089 7.3805928 1.0028125 2 -1
7.1095896 7.3254471 1.0059179 2 -1
7.1060996 7.2680731 0.99287307 2 -1
7.0895882 7.2552791 1.0033169 2 -1
7.1111178 7.2156267 0.98833966 2 -1
7.0875645 7.1595516 0.98209476 2 -1
7.0943069 7.1164398 0.96771479 2 -1
7.0815458 7.0800471 0.98075461 2 -1
7.0987635 7.0398865 0.99005556 2 -1
7.0925541 7.003499 0.99479914 2 -1
7.089088 6.9443011 0.97593093 2 -1
7.1074252 6.9223738 0.98450243 2 -1
7.0981092 6.8678961 0.97560859 2 -1
7.0932961 6.815434 0.99281371 2 -1
7.0955424 6.8042674 0.98116076 2 -1
7.0909891 6.7446127 1.0000955 2 -1
7.0964518 6.6954145 0.99069667 2 -1
7.09023 6.6604385 0.98317015 2 -1
7.0680156 6.6082115 0.99309933 2 -1
7.0906515 6.5674834 1.0090766 2 -1
7.0947819 6.5356603 1.0237118 2 -1
7.0910788 6.4878154 1.012494 2 -1
7.0717225 6.4314017 1.0233371 2 -1
7.0627818 6.4090791 1.0419356 2 -1
7.0902271 6.3221235 1.0384942 2 -1
7.0909071 6.2823329 1.0519831 2 -1
7.0805149 6.2360954 1.0416418 2 -1
7.0841899 6.201354 1.0623357 2 -1
7.0629177 6.1219006 1.0683473 2 -1
7.0696917 6.0708251 1.0735946 2 -1
7.0829477 5.9939852 1.1136452 2 -1
7.0685606 5.9585085 1.1173378 2 -1
7.0508919 5.8565798 1.1208433 2 -1
7.0718637 5.8222518 1.1429863 2 -1
7.0916939 5.7314863 1.1549584 2 -1
7.0761113 5.6689806 1.1816552 2 -1
7.0598917 5.5688844 1.2194531 2 -1
7.0551853 5.4735198 1.2259263 2 -1
7.0589533 5.387188 1.2686349 2 -1
7.0706997 5.3098693 1.28003 2 -1
7.0762024 5.1965055 1.3151022 2 -1
7.0565214 5.0721312 1.3437848 2 -1
7.0476341 4.9257669 1.3761413 2 -1
7.0522261 4.7961941 1.453903 2 -1
7.090559 4.6469612 1.4986407 2 -1
7.1312137 9.2964592 1.5709403 2 -1
7.1380014 9.1279736 1.5033995 2 -1
7.1408124 8.9978228 1.465583 2 -1
7.1196747 8.863306 1.3998959 2 -1
7.1240997 8.7702122 1.3952198 2 -1
7.1261463 8.6559973 1.3431206 2 -1
7.1209097 8.5582066 1.3040545 2 -1
7.1334391 8.4643364 1.2820549 2 -1
7.1104403 8.3762798 1.2794002 2 -1
7.0997953 8.2719927 1.2539203 2 -1
7.1213398 8.2198877 1.2122972 2 -1
7.1073217 8.1632175 1.1893846 2 -1
7.1083603 8.0594625 1.167503 2 -1
7.10217 8.0209341 1.1533644 2 -1
7.094028 7.929122 1.1605623 2 -1
7.0871463 7.8888035 1.1201819 2 -1
7.1016078 7.8262768 1.1105827 2 -1
7.0908618 7.7548227 1.1042545 2 -1
7.1148853 7.711843 1.0789675 2 -1
7.0970821 7.6631479 1.0704633 2 -1
7.0964212 7.6012444 1.0778517 2 -1
7.0901399 7.567956 1.0540968 2 -1
7.0968256 7.5024366 1.0512371 2 -1
7.1155558 7.4578514 1.0563793 2 -1
7.1013031 7.4213648 1.0410541 2 -1
7.0935545 7.3636403 1.0460336 2 -1
7.1052747 7.3247418 1.0363634 2 -1
7.1137691 7.2992444 1.0248479 2 -1
7.111455 7.2529087 1.023118 2 -1
7.1054497 7.2005067 1.0164187 2 -1
7.0846152 7.1574736 1.0235677 2 -1
7.1075692 7.1124148 1.0169444 2 -1
7.0928202 7.0795236 1.0213474 2 -1
7.0959635 7.036458 1.0185045 2 -1
7.0910902 6.9830141 1.0130506 2 -1
7.0946245 6.9520149 1.0258801 2 -1
7.0994859 6.9099965 1.0040678 2 -1
7.0891199 6.8890104 1.0185504 2 -1
7.0889783 6.8304458 1.009344 2 -1
7.0817599 6.7871542 1.0173745 2 -1
7.0869827 6.7522583 1.0114963 2 -1
7.0780497 6.7105951 1.0275996 2 -1
7.0957217 6.6723328 1.0466144 2 -1
7.0666542 6.6141467 1.0340896 2 -1
7.0755749 6.5650706 1.0248643 2 -1
7.098649 6.5381451 1.0333928 2 -1
7.0928307 6.4820356 1.060886 2 -1
7.0830774 6.4257307 1.028232 2 -1
7.0724869 6.3797917 1.0699298 2 -1
7.0810661 6.3254118 1.0847887 2 -1
7.0635366 6.3013382 1.0810491 2 -1
7.0793505 6.2176352 1.0791012 2 -1
7.0905132 6.1820068 1.0989165 2 -1
7.0887027 6.1253843 1.0967475 2 -1
7.083025 6.0721755 1.1038482 2 -1
7.0853319 5.9878016 1.1413455 2 -1
7.0825763 5.9619889 1.1493064 2 -1
7.0663977 5.8603711 1.1815262 2 -1
7.0699568 5.8198929 1.2009431 2 -1
7.0634675 5.735322 1.196447 2 -1
7.0717754 5.6563597 1.2367495 2 -1
7.0698547 5.587718 1.2492137 2 -1
7.0833397 5.5019484 1.2738469 2 -1
7.0762577 5.3948402 1.3111247 2 -1
7.0512128 5.2964802 1.3429098 2 -1
7.0530033 5.2020087 1.3776646 2 -1
7.0538883 5.0737786 1.4085556 2 -1
7.0609446 4.9392366 1.4577923 2 -1
7.0424581 4.7883344 1.5060741 2 -1
7.0941424 4.6636744 1.5545639 2 -1
7.1245327 9.2806835 1.6185802 2 -1
7.1186366 9.1437654 1.5811833 2 -1
7.1301031 9.007329 1.5225846 2 -1
7.1369228 8.88305 1.4752889 2 -1
7.1317072 8.7590351 1.4122907 2 -1
7.1151152 8.6407833 1.4190921 2 -1
7.1319313 8.543746 1.3788742 2 -1
7.1310639 8.4890642 1.3156979 2 -1
7.1214137 8.3564205 1.2981802 2 -1
7.1158948 8.2902908 1.2683277 2 -1
7.1219497 8.1985893 1.2464144 2 -1
7.110961 8.129941 1.2463423 2 -1
7.1047955 8.0715427 1.2030591 2 -1
7.1184216 7.996552 1.1996628 2 -1
7.1012955 7.9230795 1.173563 2 -1
7.1071348 7.8680596 1.157027 2 -1
7.1119518 7.8130722 1.1483278 2 -1
7.1027946 7.7649145 1.1417688 2 -1
7.1070194 7.7396226 1.1142894 2 -1
7.0996537 7.6492324 1.1264156 2 -1
7.1065502 7.6038084 1.0890868 2 -1
7.1081057 7.5427389 1.0854354 2 -1
7.1125622 7.5224361 1.0988638 2 -1
7.1081958 7.4596782 1.0798466 2 -1
7.0961795 7.4088264 1.0855138 2 -1
7.116858 7.3777213 1.092226 2 -1
7.0930338 7.3154583 1.0709096 2 -1
7.1127529 7.2855458 1.0566083 2 -1
7.1044464 7.2470155 1.064623 2 -1
7.098217 7.1838837 1.0618579 2 -1
7.0954647 7.1439781 1.0516869 2 -1
7.0846701 7.1160245 1.0557002 2 -1
7.0838737 7.0540972 1.0295038 2 -1
7.110158 7.0274744 1.0425816 2 -1
7.0870123 6.9960499 1.0429586 2 -1
7.1015534 6.9536176 1.031548 2 -1
7.0992966 6.9212699 1.0546503 2 -1
7.1032267 6.8744535 1.0480299 2 -1
7.0978832 6.8360529 1.0498298 2 -1
7.0830841 6.7816525 1.0622271 2 -1
7.096487 6.7394328 1.0468988 2 -1
7.1072922 6.7159419 1.0737864 2 -1
7.0807247 6.6707225 1.0822985 2 -1
7.0672469 6.6180558 1.0693616 2 -1
7.0747852 6.5603037 1.0777075 2 -1
7.0708518 6.5450139 1.0773948 2 -1
7.1039176 6.4869175 1.0962316 2 -1
7.1142068 6.4268632 1.0970769 2 -1
7.0798063 6.3970861 1.0993829 2 -1
7.066443 6.338964 1.0996822 2 -1
7.0673876 6.2944264 1.1139559 2 -1
7.0781994 6.2317395 1.1280006 2 -1
7.0616617 6.1721754 1.1532916 2 -1
7.0578833 6.1349101 1.1602839 2 -1
7.0765676 6.0764894 1.1695243 2 -1
7.0657587 6.0171056 1.1891 2 -1
7.0691571 5.9363632 1.2009176 2 -1
7.0661397 5.8859386 1.216143 2 -1
7.0596972 5.7997179 1.220742 2 -1
7.0715923 5.7382736 1.252882 2 -1
7.0636778 5.6497674 1.2766509 2 -1
7.0757251 5.5826097 1.2933085 2 -1
7.0548887 5.490531 1.3207275 2 -1
7.0525427 5.4024935 1.3580787 2 -1
7.0575805 5.2994394 1.3979272 2 -1
7.0486526 5.1710563 1.4395868 2 -1
7.0556979 5.073113 1.4614886 2 -1
7.0566983 4.9196343 1.5114715 2 -1
7.0515876 4.7997093 1.552174 2 -1
7.0775442 4.6621637 1.6223903 2 -1
7.1512837 9.316 1.7020464 2 -1
7.1442919 9.1379929 1.6291738 2 -1
7.1260767 8.9983482 1.574878 2 -1
7.1217065 8.8842344 1.5430566 2 -1
7.1296992 8.7403278 1.4696237 2 -1
7.1232014 8.6460934 1.452947 2 -1
7.1412106 8.5542059 1.4106586 2 -1
7.118484 8.4480667 1.3798479 2 -1
7.1130538 8.3582458 1.3478551 2 -1
7.1156659 8.2797995 1.3270735 2 -1
7.1209693 8.2038097 1.3053734 2 -1
7.1219888 8.1293602 1.2743554 2 -1
7.1193433 8.0560942 1.2684962 2 -1
7.1102829 7.9971023 1.2600014 2 -1
7.1200714 7.9349241 1.2268263 2 -1
7.1063886 7.8713288 1.2063266 2 -1
7.1059132 7.8262391 1.1956749 2 -1
7.101356 7.7596531 1.176716 2 -1
7.1092792 7.7228088 1.1656206 2 -1
7.1072531 7.665916 1.1565641 2 -1
7.0947075 7.602324 1.1485968 2 -1
7.1056228 7.5679998 1.1423122 2 -1
7.0846601 7.5201321 1.1278023 2 -1
7.102056 7.4322357 1.1122638 2 -1
7.1051393 7.4197063 1.1154003 2 -1
7.1027303 7.3711762 1.096621 2 -1
7.1049151 7.324821 1.0783813 2 -1
7.093905 7.2860136 1.1001848 2 -1
7.1092725 7.236197 1.0888166 2 -1
7.1013927 7.1871452 1.0889847 2 -1
7.0966916 7.1341925 1.1030588 2 -1
7.1017904 7.1178727 1.0960122 2 -1
7.0973835 7.0747151 1.0767789 2 -1
7.0985613 7.0474377 1.1061008 2 -1
7.0941672 6.972034 1.0673149 2 -1
7.0845051 6.9654689 1.0874426 2 -1
7.0931721 6.9136062 1.0922375 2 -1
7.0955801 6.8969345 1.084859 2 -1
7.0795918 6.8345037 1.0924969 2 -1
7.11235 6.8039684 1.0886515 2 -1
7.0696716 6.7489533 1.0939903 2 -1
7.0989623 6.710216 1.0962768 2 -1
7.0925174 6.6835632 1.0891234 2 -1
7.0830979 6.6232033 1.0943528 2 -1
7.0869751 6.5854158 1.1174114 2 -1
7.0762467 6.5416183 1.1148139 2 -1
7.1018591 6.5013032 1.1263647 2 -1
7.0807791 6.4498787 1.1282593 2 -1
7.0821319 6.3952174 1.1399602 2 -1
7.0863934 6.3457565 1.1479887 2 -1
7.0728607 6.2805195 1.1378113 2 -1
7.0713291 6.2431397 1.1543899 2 -1
7.0897398 6.1856728 1.1944617 2 -1
7.0848308 6.1228094 1.1903063 2 -1
7.0719705 6.0609207 1.2175201 2 -1
7.0752258 6.0038695 1.2133138 2 -1
7.0751066 5.9460764 1.2464616 2 -1
7.0832233 5.8951502 1.2720474 2 -1
7.0538359 5.8231096 1.2811693 2 -1
7.0745268 5.7309604 1.3198323 2 -1
7.0715938 5.6659102 1.3296478 2 -1
7.0626135 5.5771103 1.3707687 2 -1
7.0675435 5.4838195 1.3958063 2 -1
7.07161 5.3833447 1.41344 2 -1
7.0425005 5.2940111 1.4274559 2 -1
7.052001 5.1907177 1.4874016 2 -1
7.0557423 5.0647602 1.5306823 2 -1
7.0543065 4.9421859 1.5764532 2 -1
7.0678668 4.8161335 1.6095877 2 -1
7.0764322 4.665328 1.6923267 2 -1
7.1385202 9.2979755 1.7676978 2 -1
7.1337328 9.1386433 1.7135545 2 -1
7.1287541 9.0072079 1.6449275 2 -1
7.1275396 8.8774996 1.5862901 2 -1
7.1294904 8.7635298 1.5395478 2 -1
7.1269326 8.6358871 1.5155512 2 -1
7.1280179 8.5494366 1.457027 2 -1
7.1358089 8.4596167 1.4331013 2 -1
7.1204915 8.3727217 1.4131377 2 -1
7.1276574 8.2777996 1.3639494 2 -1
7.0940666 8.2160397 1.3388187 2 -1
7.1127524 8.1416922 1.3476454 2 -1
7.1064587 8.0517902 1.2876357 2 -1
7.1066499 8.0065546 1.2847742 2 -1
7.1149931 7.9395914 1.287442 2 -1
7.1044097 7.8711433 1.2464938 2 -1
7.1113229 7.8054867 1.2168908 2 -1
7.0982065 7.7733612 1.2123457 2 -1
7.0837331 7.7047768 1.2105234 2 -1
7.1222448 7.6454887 1.2001369 2 -1
7.0943313 7.6060519 1.183964 2 -1
7.0928469 7.5480733 1.163147 2 -1
7.1029139 7.5152307 1.1657764 2 -1
7.0933046 7.4654627 1.1569289 2 -1
7.1020203 7.4161916 1.1513567 2 -1
7.0948191 7.3645916 1.1462139 2 -1
7.1040783 7.34478 1.1301997 2 -1
7.0938163 7.2956576 1.146242 2 -1
7.0892997 7.245296 1.1420293 2 -1
7.0917768 7.1976662 1.1255012 2 -1
7.0961943 7.1507721 1.1170002 2 -1
7.1067839 7.110168 1.111468 2 -1
7.0877571 7.0752072 1.1026998 2 -1
7.1006427 7.0394425 1.1201533 2 -1
7.0867848 6.9889188 1.1286168 2 -1
7.1039495 6.9287763 1.1181835 2 -1
7.0939808 6.9101067 1.1150708 2 -1
7.0893283 6.8629708 1.1186531 2 -1
7.086381 6.8211126 1.127393 2 -1
7.0924325 6.79491 1.1348031 2 -1
7.0835929 6.7506657 1.1225321 2 -1
7.0868702 6.6973238 1.129916 2 -1
7.0902691 6.653614 1.1384027 2 -1
7.0795455 6.5951805 1.1310705 2 -1
7.0969067 6.5727262 1.1497786 2 -1
7.0898886 6.540503 1.1397395 2 -1
7.0814338 6.4917111 1.1582335 2 -1
7.0852671 6.4280186 1.1299132 2 -1
7.0817342 6.3854012 1.1614474 2 -1
7.0844216 6.3398476 1.1632626 2 -1
7.0772481 6.2962866 1.1941215 2 -1
7.0785623 6.2329106 1.2143613 2 -1
7.092876 6.191793 1.2386153 2 -1
7.0708318 6.1293244 1.2347443 2 -1
7.0639963 6.0766435 1.2457335 2 -1
7.087162 5.9977484 1.2668734 2 -1
7.0745411 5.9400392 1.292239 2 -1
7.0686522 5.8668051 1.297339 2 -1
7.0751424 5.8156977 1.314834 2 -1
7.0932083 5.7437997 1.3409431 2 -1
7.0675836 5.654067 1.3786019 2 -1
7.0719571 5.5760679 1.4008876 2 -1
7.0678816 5.4859886 1.448495 2 -1
7.0548515 5.3814416 1.4733616 2 -1
7.0655227 5.3070893 1.5164722 2 -1
7.0608835 5.1941528 1.5371983 2 -1
7.0453401 5.0825872 1.5961535 2 -1
7.0593567 4.9385376 1.633322 2 -1
7.0750318 4.8165779 1.7017437 2 -1
7.0889778 4.6745152 1.7555319 2 -1
7.1427965 9.3138952 1.8332067 2 -1
7.1413574 9.1455402 1.7856547 2 -1
7.1181917 8.9999342 1.7066184 2 -1
7.12746 8.8747749 1.6509112 2 -1
7.1192446 8.7451906 1.6042664 2 -1
7.1169825 8.6564732 1.5574733 2 -1
7.119514 8.5286922 1.5218028 2 -1
7.1196327 8.4772358 1.5011075 2 -1
7.1347666 8.3606606 1.4586233 2 -1
7.1124721 8.3033628 1.4162699 2 -1
7.1116352 8.2204332 1.3893764 2 -1
7.1297522 8.1513186 1.3795886 2 -1
7.1212583 8.0673389 1.3397694 2 -1
7.1145906 7.9945459 1.3145167 2 -1
7.1119914 7.9300475 1.3241385 2 -1
7.1150169 7.8791585 1.2931988 2 -1
7.1219516 7.8205976 1.2745713 2 -1
7.1244888 7.7690864 1.2589134 2 -1
7.1265426 7.7081842 1.2553922 2 -1
7.0905294 7.6541805 1.2288171 2 -1
7.1045537 7.5977917 1.227721 2 -1
7.1080365 7.5485163 1.213611 2 -1
7.1016846 7.5205755 1.1961545 2 -1
7.0896206 7.4546494 1.2051811 2 -1
7.0994864 7.4127202 1.1709564 2 -1
7.0786448 7.3666387 1.1698184 2 -1
7.1077003 7.3167319 1.1804322 2 -1
7.0950108 7.2985129 1.185647 2 -1
7.0882092 7.23915 1.1489321 2 -1
7.1061506 7.1920729 1.1422745 2 -1
7.08776 7.1715498 1.1586044 2 -1
7.0988903 7.0998087 1.1503836 2 -1
7.0835505 7.078155 1.1612469 2 -1
7.0780954 7.0350151 1.1517204 2 -1
7.1088314 6.9857655 1.1683189 2 -1
7.0993896 6.9510155 1.1678487 2 -1
7.0901871 6.9226594 1.1552503 2 -1
7.0934472 6.863461 1.1518669 2 -1
7.0881224 6.8299556 1.1503173 2 -1
7.0953393 6.7940073 1.1649957 2 -1
7.0916948 6.7466464 1.1804847 2 -1
7.0965171 6.7224412 1.1744921 2 -1
7.1093235 6.6569533 1.1855539 2 -1
7.0843496 6.6371241 1.1899942 2 -1
7.0780592 6.5810666 1.1845789 2 -1
7.0776401 6.5406785 1.1884254 2 -1
7.0834198 6.4721656 1.1849866 2 -1
7.0877385 6.4325142 1.2034229 2 -1
7.0645609 6.378593 1.2113291 2 -1
7.0749273 6.3528881 1.2083082 2 -1
7.0816226 6.2694559 1.2337675 2 -1
7.0719209 6.2368879 1.2558303 2 -1
7.0695491 6.1784153 1.2702024 2 -1
7.0950089 6.1175323 1.2718035 2 -1
7.0789189 6.0849762 1.3137733 2 -1
7.0764127 6.0114522 1.3033979 2 -1
7.0869179 5.963335 1.3342582 2 -1
7.0597978 5.8794265 1.3345574 2 -1
7.0873184 5.8080263 1.3736885 2 -1
7.0732756 5.7423425 1.3997108 2 -1
7.0813227 5.6560841 1.4220225 2 -1
7.0761552 5.5909715 1.4498912 2 -1
7.071682 5.4768338 1.4835366 2 -1
7.0838842 5.3855267 1.5074835 2 -1
7.0401855 5.2983971 1.5547972 2 -1
7.068428 5.2057743 1.6037383 2 -1
7.0599742 5.0765028 1.6311073 2 -1
7.0340543 4.9427161 1.6974694 2 -1
7.0590925 4.7951612 1.7644417 2 -1
7.0733509 4.6624255 1.8449068 2 -1
7.1187282 9.2976408 1.9018691 2 -1
7.1283522 9.1534519 1.8231473 2 -1
7.1242428 9.0124855 1.7684058 2 -1
7.1243114 8.8570108 1.6989813 2 -1
7.1354642 8.7527237 1.6519383 2 -1
7.1393819 8.672266 1.6198946 2 -1
7.1282682 8.5617952 1.579482 2 -1
7.1154237 8.4468079 1.5310277 2 -1
7.1371694 8.3588247 1.5024042 2 -1
7.1427879 8.2732944 1.4772717 2 -1
7.1201925 8.2217703 1.4547644 2 -1
7.1288099 8.1338387 1.4250686 2 -1
7.1232762 8.0727615 1.3759462 2 -1
7.1139164 7.9894824 1.3683931 2 -1
7.1140394 7.9417658 1.3513991 2 -1
7.112041 7.8733792 1.3417635 2 -1
7.1166039 7.8217783 1.3299762 2 -1
7.1141906 7.7455997 1.3041141 2 -1
7.116127 7.7214413 1.2897849 2 -1
7.0974855 7.6581769 1.2986255 2 -1
7.1053143 7.6182351 1.265381 2 -1
7.1110315 7.5546007 1.2316219 2 -1
7.1010289 7.5051012 1.2537483 2 -1
7.0952473 7.4521241 1.2334857 2 -1
7.1072626 7.4128413 1.2417593 2 -1
7.1140299 7.3795686 1.2198565 2 -1
7.0961909 7.3220897 1.2344321 2 -1
7.0974364 7.2791085 1.21865 2 -1
7.0985518 7.2274857 1.2084198 2 -1
7.0929537 7.2022438 1.194029 2 -1
7.100008 7.1404567 1.2052248 2 -1
7.0865626 7.1157107 1.184119 2 -1
7.0861888 7.0756898 1.1839483 2 -1
7.0991969 7.0496898 1.2064991 2 -1
7.0932899 6.9784932 1.1736919 2 -1
7.0913515 6.9535031 1.1744163 2 -1
7.097538 6.9081111 1.2018566 2 -1
7.0924683 6.8632483 1.1824681 2 -1
7.0956116 6.8150692 1.1894243 2 -1
7.0741253 6.800684 1.1955061 2 -1
7.0844641 6.7404833 1.1931279 2 -1
7.0884943 6.6954265 1.2094022 2 -1
7.0749612 6.6710052 1.1987853 2 -1
7.0854206 6.6284304 1.2136642 2 -1
7.0761099 6.5658598 1.2234701 2 -1
7.0666218 6.516881 1.2297229 2 -1
7.0768771 6.4865847 1.2248037 2 -1
7.0857477 6.4292631 1.2377826 2 -1
7.0859976 6.3950677 1.2556982 2 -1
7.0957022 6.33395 1.2683989 2 -1
7.0702877 6.2795863 1.2630975 2 -1
7.0736842 6.2461743 1.2972207 2 -1
7.0825005 6.2009926 1.2956014 2 -1
7.0940495 6.1294641 1.334332 2 -1
7.0797653 6.0683208 1.3229547 2 -1
7.0746365 6.0229154 1.3584132 2 -1
7.0597477 5.9301338 1.3814081 2 -1
7.066813 5.8950019 1.3998978 2 -1
7.0766382 5.7921581 1.4186335 2 -1
7.0443177 5.7306414 1.4436612 2 -1
7.0774655 5.6487331 1.4773408 2 -1
7.0643859 5.5735655 1.4887713 2 -1
7.0704956 5.4705987 1.518219 2 -1
7.0679722 5.4244423 1.577837 2 -1
7.0537934 5.2844987 1.62032 2 -1
7.0649309 5.1958394 1.6579113 2 -1
7.0358305 5.0525689 1.7168957 2 -1
7.0716209 4.9381189 1.768018 2 -1
7.0525756 4.7898102 1.8330339 2 -1
7.0833602 4.6596088 1.9094377 2 -1
7.1226597 9.2813425 1.9860957 2 -1
7.1266537 9.1424475 1.9232836 2 -1
7.141727 9.0127754 1.8388667 2 -1
7.1112723 8.8958416 1.7998389 2 -1
7.1353235 8.7475405 1.7104645 2 -1
7.1367269 8.6556463 1.6955258 2 -1
7.115993 8.5677586 1.6524105 2 -1
7.1164842 8.4495592 1.6124225 2 -1
7.106142 8.3808279 1.5538852 2 -1
7.1348038 8.2987537 1.5361904 2 -1
7.1219583 8.1982069 1.4884927 2 -1
7.1041999 8.1404667 1.4879261 2 -1
7.1139245 8.0789175 1.4710194 2 -1
7.1060505 7.9916601 1.4439441 2 -1
7.1015773 7.9339485 1.4008445 2 -1
7.1024866 7.870626 1.3843945 2 -1
7.1130538 7.8304124 1.3674661 2 -1
7.0983658 7.7837758 1.3444941 2 -1
7.109602 7.7071252 1.3560033 2 -1
7.1032209 7.6528244 1.3194233 2 -1
7.1039143 7.6264653 1.3063618 2 -1
7.1082582 7.548739 1.2908759 2 -1
7.0926986 7.509573 1.2618798 2 -1
7.0876222 7.463644 1.2703835 2 -1
7.1152148 7.4097018 1.2765669 2 -1
7.1136255 7.3665104 1.2647861 2 -1
7.1009717 7.311244 1.2401197 2 -1
7.1099429 7.2856092 1.2488729 2 -1
7.0924377 7.2377944 1.2243575 2 -1
7.0941191 7.1970038 1.2289002 2 -1
7.0808554 7.1593404 1.2207626 2 -1
7.0972519 7.1201501 1.2402445 2 -1
7.0976501 7.0860901 1.2255713 2 -1
7.0887942 7.032382 1.2286916 2 -1
7.0973125 6.996489 1.2293004 2 -1
7.0880094 6.9470558 1.2090992 2 -1
7.08284 6.9208755 1.2303519 2 -1
7.0777392 6.863739 1.2307917 2 -1
7.0881553 6.8534503 1.2255212 2 -1
7.0926847 6.7606492 1.2446706 2 -1
7.114902 6.7427149 1.2449784 2 -1
7.0735307 6.6790876 1.2309712 2 -1
7.0881567 6.6640124 1.2642039 2 -1
7.0915732 6.6235585 1.2619084 2 -1
7.0955181 6.5713415 1.246032 2 -1
7.0877318 6.5390329 1.2772008 2 -1
7.0854111 6.4877696 1.276258 2 -1
7.0819449 6.4431 1.2871721 2 -1
7.0920625 6.3953352 1.3133309 2 -1
7.0857005 6.3387804 1.2893429 2 -1
7.0965729 6.2848101 1.3097471 2 -1
7.0790663 6.2328506 1.3518949 2 -1
7.0703888 6.1654043 1.3474517 2 -1
7.0634375 6.1365733 1.352119 2 -1
7.0761051 6.0679646 1.3773738 2 -1
7.0762472 5.9848557 1.3933816 2 -1
7.0667238 5.9602656 1.4233822 2 -1
7.0667915 5.8975258 1.4403678 2 -1
7.0668793 5.8137712 1.4628042 2 -1
7.07897 5.7313623 1.4933386 2 -1
7.0590992 5.6555848 1.5170685 2 -1
7.0760131 5.5836062 1.5457907 2 -1
7.0740542 5.4921203 1.6137569 2 -1
7.0577946 5.4049487 1.6395899 2 -1
7.0497675 5.3095846 1.6716719 2 -1
7.0650721 5.1787086 1.7229058 2 -1
7.0543332 5.0630741 1.7980762 2 -1
7.0573006 4.9379101 1.8474164 2 -1
7.0618896 4.8016691 1.907635 2 -1
7.0789323 4.6676731 1.9949943 2 -1
7.1554756 9.326437 2.0345244 2 -1
7.1460457 9.1505775 1.9444072 2 -1
7.1618581 9.002758 1.8921365 2 -1
7.1257038 8.8777227 1.8279879 2 -1
7.1364913 8.7739124 1.7681239 2 -1
7.1326132 8.6440239 1.7048397 2 -1
7.1260295 8.5691776 1.6653322 2 -1
7.1164703 8.4731827 1.6167841 2 -1
7.1356406 8.3645992 1.5900246 2 -1
7.1103139 8.2876482 1.5553287 2 -1
7.1118217 8.2120581 1.5210884 2 -1
7.1164985 8.1446705 1.498667 2 -1
7.1248145 8.0801115 1.5095476 2 -1
7.1312709 8.0143461 1.4727025 2 -1
7.1255932 7.9391718 1.4297042 2 -1
7.1153593 7.8925939 1.4129355 2 -1
7.1149631 7.8149543 1.3777964 2 -1
7.1148376 7.7349806 1.3700279 2 -1
7.1158004 7.7118373 1.3579625 2 -1
7.1170545 7.6568956 1.3489598 2 -1
7.1182985 7.617116 1.3360636 2 -1
7.1165738 7.5630665 1.3321234 2 -1
7.0980062 7.5064311 1.3061186 2 -1
7.1104517 7.4606104 1.2948476 2 -1
7.1069818 7.4118466 1.2957884 2 -1
7.0979567 7.387805 1.2798376 2 -1
7.114367 7.3131089 1.2799276 2 -1
7.0957708 7.2811871 1.2770158 2 -1
7.1101055 7.2519431 1.273769 2 -1
7.1018906 7.1935234 1.2528962 2 -1
7.0799789 7.1437683 1.2510827 2 -1
7.0934606 7.1284604 1.2573906 2 -1
7.097981 7.0621543 1.2755513 2 -1
7.0833931 7.0322919 1.2413852 2 -1
7.0907946 7.0046644 1.246279 2 -1
7.1067767 6.9564834 1.2581178 2 -1
7.0847869 6.914454 1.2398558 2 -1
7.0930996 6.8845687 1.251055 2 -1
7.0878692 6.8194919 1.2459089 2 -1
7.0913725 6.7998915 1.2721477 2 -1
7.0788045 6.7275658 1.2716701 2 -1
7.0868196 6.6942782 1.2735697 2 -1
