# .PCD v0.7 - Point Cloud Data file format
VERSION 0.7
FIELDS x y z label
SIZE 4 4 4 4
TYPE F F F U
COUNT 1 1 1 1
WIDTH 1316
HEIGHT 1
VIEWPOINT 2.30001 7.00001 0.0997603 1 0 0 0
POINTS 1316
DATA ascii
1.4511588 5.9963722 0.32449326 3 -1
1.4008887 5.9761982 0.319924 3 -1
1.3230941 5.9401026 0.31473833 3 -1
1.2367696 5.9151182 0.29172033 3 -1
1.0395321 5.8054457 0.24571687 3 -1
0.20207191 5.1363244 0.14382246 1 -1
0.14860368 5.2013178 0.12287739 1 -1
0.1116488 5.2691979 0.11834261 1 -1
0.056692123 5.3412576 0.11565498 2 -1
0.067669153 5.433012 0.12508693 2 -1
0.062598705 5.5098634 0.13888276 2 -1
0.073852539 5.620492 0.15299934 2 -1
0.065698385 5.7066555 0.16954121 2 -1
0.08122611 5.7903275 0.14922354 2 -1
0.075836897 5.8751245 0.15530732 2 -1
0.077099562 5.9373603 0.15611377 2 -1
0.089640379 6.0329561 0.17695707 2 -1
0.084285975 6.1047897 0.1871599 2 -1
0.083021402 6.1796188 0.19208685 2 -1
0.075748444 6.2631121 0.1706467 2 -1
0.082516193 6.3132777 0.18331054 2 -1
0.085045099 6.3959222 0.16176516 2 -1
0.085876703 6.4475036 0.17761254 2 -1
0.08569479 6.5303888 0.20060948 2 -1
0.1063714 6.5734086 0.1989994 2 -1
0.078222275 6.6377349 0.19219252 2 -1
0.07333827 6.6895003 0.19898 2 -1
0.098528385 6.7968507 0.19444975 2 -1
0.10007358 6.8409095 0.20232034 2 -1
0.096150637 6.8736391 0.1928893 2 -1
3.6719341 4.2003813 0.14157534 1 -1
3.6593246 4.0690646 0.14183226 1 -1
3.5863869 4.0244255 0.13851991 1 -1
3.4958239 3.9717889 0.13902736 1 -1
3.3862486 3.966284 0.12352192 1 -1
3.3217242 3.8964863 0.14521363 1 -1
3.2002838 3.8566573 0.12245533 1 -1
3.1543725 3.8314347 0.13873732 1 -1
3.0522976 3.8175628 0.14673477 1 -1
2.5590358 5.4554939 0.31612548 3 -1
2.4828115 5.5640354 0.31197912 3 -1
2.4295704 5.6403084 0.31959307 3 -1
2.3864923 5.6957011 0.33135098 3 -1
2.3347354 5.7379022 0.34587374 3 -1
2.3304152 5.7716227 0.3471972 3 -1
2.276171 5.7951493 0.36170763 3 -1
2.255141 5.842185 0.36997801 3 -1
2.198699 5.8345857 0.37176344 3 -1
2.1998067 5.8555794 0.36458156 3 -1
2.152159 5.8784652 0.34454942 3 -1
2.1225901 5.9078059 0.34791082 3 -1
2.0957232 5.8885522 0.37735981 3 -1
2.0630562 5.9150677 0.37364739 3 -1
2.0715094 5.928668 0.35872108 3 -1
2.0118551 5.9374075 0.37864941 3 -1
1.9936398 5.9513378 0.37290108 3 -1
1.9711046 5.9625335 0.38148195 3 -1
1.9494433 5.9597549 0.36385506 3 -1
1.8996289 5.9816008 0.35070878 3 -1
1.8727915 5.9947143 0.39623803 3 -1
1.8309083 5.9756861 0.38002872 3 -1
1.8136817 5.9958072 0.37715966 3 -1
1.7748007 5.9866076 0.37256196 3 -1
1.7555678 5.9985271 0.35890922 3 -1
1.7399964 5.9953308 0.36479837 3 -1
1.6831415 6.0245748 0.37300396 3 -1
1.657927 6.0093412 0.35258931 3 -1
1.5962868 5.9869823 0.37241024 3 -1
1.5769439 6.0028915 0.35788649 3 -1
1.5028491 6.0059838 0.35830295 3 -1
1.4737691 5.9854298 0.33296812 3 -1
1.3943912 5.9748001 0.32410485 3 -1
1.3279886 5.9473886 0.33724439 3 -1
1.253148 5.8906765 0.31460732 3 -1
1.025779 5.7950077 0.29586974 3 -1
0.067802429 5.0010061 0.17012757 2 -1
0.064936161 5.1295214 0.18347672 2 -1
0.063387156 5.2254376 0.15848973 2 -1
0.051917315 5.3280587 0.17273793 2 -1
0.072108984 5.4288549 0.20248309 2 -1
0.085836887 5.5270271 0.20636511 2 -1
0.083792925 5.6294212 0.19679105 2 -1
0.089363098 5.7143269 0.21606737 2 -1
0.088237762 5.7942729 0.21520728 2 -1
0.080290079 5.8600092 0.20103729 2 -1
0.087537527 5.9540629 0.22747767 2 -1
0.076544762 6.0191832 0.22073731 2 -1
0.095431566 6.1030593 0.22112609 2 -1
0.084033728 6.1829081 0.23527873 2 -1
0.090699434 6.2377334 0.22877657 2 -1
0.072429895 6.319983 0.25301838 2 -1
0.075185299 6.3949089 0.24339131 2 -1
0.095554113 6.444766 0.23595229 2 -1
0.086696625 6.5300999 0.22352089 2 -1
0.086102247 6.5816679 0.24159443 2 -1
0.085934639 6.6578951 0.23961797 2 -1
0.11257291 6.7275414 0.24606389 2 -1
0.095643044 6.7800803 0.2570737 2 -1
0.091037035 6.8434772 0.24538007 2 -1
0.10422969 6.8981838 0.23762751 2 -1
3.696007 4.2033997 0.21599814 3 -1
3.6520984 4.0773153 0.19593385 3 -1
3.6332026 3.8599155 0.17879352 3 -1
3.7769127 3.3264606 0.14422593 1 -1
3.657721 3.2702036 0.14683476 1 -1
3.5565429 3.2278788 0.13544673 1 -1
3.459348 3.209574 0.15093282 1 -1
3.3285527 3.1484189 0.12569174 1 -1
3.2199359 3.1339693 0.14476979 1 -1
2.5687001 5.455832 0.33711976 3 -1
2.4758129 5.5606899 0.34674054 3 -1
2.4343638 5.6455517 0.35643837 3 -1
2.3804946 5.7015676 0.34797817 3 -1
2.3358135 5.7483621 0.37037095 3 -1
2.3201194 5.7810798 0.3759498 3 -1
2.2777691 5.7942171 0.3761552 3 -1
2.2377105 5.8035154 0.36755002 3 -1
2.210135 5.8224306 0.39453351 3 -1
2.164176 5.8681483 0.38861886 3 -1
2.1527195 5.8867278 0.40080157 3 -1
2.1313927 5.8996601 0.39240676 3 -1
2.0699751 5.9142237 0.3796348 3 -1
2.077018 5.9201159 0.39502123 3 -1
2.0240388 5.9382796 0.40150511 3 -1
2.019376 5.9403443 0.38513666 3 -1
1.9933405 5.9450722 0.37891281 3 -1
1.9595628 5.9457598 0.39183983 3 -1
1.9174428 5.9819231 0.39911199 3 -1
1.8989034 5.9757013 0.38631383 3 -1
1.8668034 5.9873061 0.39568159 3 -1
1.845893 5.9764252 0.38447756 3 -1
1.8045435 6.0003872 0.39884293 3 -1
1.7911518 5.9832249 0.38993299 3 -1
1.7606449 6.0081649 0.39053786 3 -1
1.7096503 5.9963679 0.40259826 3 -1
1.6830826 5.9967017 0.39344215 3 -1
1.6601512 5.999763 0.38789484 3 -1
1.6127839 6.0063882 0.37234649 3 -1
1.5633767 6.0083833 0.37628022 3 -1
1.5115012 6.0086441 0.37616551 3 -1
1.4743052 5.9922056 0.36540541 3 -1
1.3961121 5.9738679 0.37665445 3 -1
1.3461081 5.9673929 0.36948204 3 -1
1.2358794 5.903399 0.34791821 3 -1
1.067353 5.7923484 0.33135664 3 -1
0.064653873 5.0290661 0.24783674 2 -1
0.065143347 5.1099448 0.22528738 2 -1
0.089639425 5.2438383 0.23094246 2 -1
0.06887722 5.3405666 0.22291377 2 -1
0.069638729 5.4323959 0.24866819 2 -1
0.069641352 5.5278592 0.26172012 2 -1
0.078226328 5.6196318 0.24921545 2 -1
0.083436251 5.6972656 0.26277846 2 -1
0.088068724 5.7770958 0.25807357 2 -1
0.072225809 5.8607712 0.26699966 2 -1
0.074700356 5.9442697 0.25463375 2 -1
0.092890263 6.0105324 0.26840088 2 -1
0.11034918 6.0905733 0.26679516 2 -1
0.077438593 6.1580086 0.26965293 2 -1
0.08556056 6.2207317 0.28014532 2 -1
0.070757151 6.3214607 0.29283187 2 -1
0.090116262 6.3925886 0.27322602 2 -1
0.094997168 6.4486699 0.28639051 2 -1
0.092053413 6.5140862 0.27487341 2 -1
0.10071898 6.5897017 0.28495452 2 -1
0.099134445 6.654737 0.27130717 2 -1
0.095462799 6.708879 0.29407167 2 -1
0.10010552 6.7890258 0.29795358 2 -1
0.088692904 6.8505692 0.29734066 2 -1
0.094790459 6.8792014 0.28192553 2 -1
3.695302 4.2277346 0.28145406 3 -1
3.6528225 4.0777597 0.27942324 3 -1
3.664588 3.8640134 0.25453579 3 -1
4.2437115 2.2911777 0.15655634 1 -1
4.1082335 2.2206955 0.16135198 1 -1
3.9513328 2.1671119 0.16258267 1 -1
3.8072891 2.1260757 0.14383864 1 -1
3.6536989 2.0904651 0.15994936 1 -1
3.511095 2.03231 0.16790015 1 -1
2.5423973 5.4443426 0.38325778 3 -1
2.5017037 5.5675864 0.38204932 3 -1
2.4429877 5.6589575 0.38931888 3 -1
2.4022658 5.6976056 0.39141864 3 -1
2.3514159 5.7528996 0.40193489 3 -1
2.2859809 5.7702761 0.40568709 3 -1
2.2694099 5.7983932 0.41494879 3 -1
2.2519813 5.8134384 0.39180529 3 -1
2.2216263 5.8479853 0.38805461 3 -1
2.1849751 5.8630805 0.38832411 3 -1
2.147038 5.8924599 0.41005018 3 -1
2.1212008 5.8882351 0.40422651 3 -1
2.1017447 5.9175191 0.41855466 3 -1
2.0771108 5.9131474 0.40654632 3 -1
2.0301204 5.9616981 0.42570671 3 -1
2.0121183 5.9326978 0.4088046 3 -1
1.9876564 5.9598279 0.41608295 3 -1
1.9400158 5.9553561 0.40388203 3 -1
1.9272504 5.9577637 0.40727615 3 -1
1.9014301 5.9698062 0.40684351 3 -1
1.8623434 5.9702845 0.41606572 3 -1
1.8520875 5.9958692 0.41315782 3 -1
1.8031416 5.9947009 0.39432457 3 -1
1.7805976 5.9931259 0.4127835 3 -1
1.7535279 6.0115442 0.39822063 3 -1
1.731141 6.0199795 0.39519358 3 -1
1.7127137 6.0117612 0.39076489 3 -1
1.6349554 5.9881415 0.41057897 3 -1
1.6037331 6.0143614 0.39209762 3 -1
1.5665476 6.01087 0.39013267 3 -1
1.5132885 5.9890308 0.41398218 3 -1
1.4638125 5.9885669 0.40331018 3 -1
1.4137149 5.9817152 0.39031366 3 -1
1.3354297 5.9484406 0.37624955 3 -1
1.2421184 5.9161906 0.38058648 3 -1
1.044363 5.7977405 0.3467029 3 -1
0.042852163 5.0311346 0.28784585 2 -1
0.072730541 5.1334043 0.28103858 2 -1
0.051171541 5.2592101 0.30262667 2 -1
0.061960697 5.3350344 0.28937492 2 -1
0.082464933 5.434938 0.30319345 2 -1
0.067840815 5.509881 0.30379882 2 -1
0.07929492 5.62675 0.31424475 2 -1
0.077324629 5.6917987 0.30557477 2 -1
0.072798252 5.7949915 0.31287846 2 -1
0.093274593 5.8690672 0.32565749 2 -1
0.056013823 5.9344678 0.31720704 2 -1
0.073335886 6.0295386 0.33414894 2 -1
0.071902752 6.0937219 0.3297078 2 -1
0.085466623 6.1735654 0.32076401 2 -1
0.092598677 6.2471709 0.32250953 2 -1
0.094199181 6.324585 0.31221354 2 -1
0.098042488 6.3773851 0.31990862 2 -1
0.064184666 6.457056 0.33686218 2 -1
0.10275316 6.5425239 0.31908688 2 -1
0.09066081 6.5958338 0.34073198 2 -1
0.094855309 6.6462445 0.3202433 2 -1
0.099202871 6.7059841 0.31954598 2 -1
0.076784611 6.7812591 0.3078208 2 -1
0.095650434 6.8560591 0.33526546 2 -1
0.10226274 6.8729959 0.31582004 2 -1
3.6868773 4.2008171 0.34446239 3 -1
3.6684947 4.0832253 0.32891095 3 -1
3.6527352 3.8525426 0.32143646 3 -1
2.5617085 5.4502869 0.40742043 3 -1
2.4953055 5.5666652 0.40018663 3 -1
2.4282238 5.6275258 0.41527018 3 -1
2.3883479 5.698 0.39971894 3 -1
2.3554111 5.7488875 0.43638641 3 -1
2.3279717 5.7793322 0.4301376 3 -1
2.2545838 5.7975473 0.40785474 3 -1
2.244189 5.8209996 0.43223158 3 -1
2.2007439 5.8438663 0.4170143 3 -1
2.170856 5.8634405 0.43345547 3 -1
2.1452558 5.8822145 0.42114291 3 -1
2.1410878 5.8865089 0.4124569 3 -1
2.1126742 5.8970985 0.42381078 3 -1
2.0525684 5.9170351 0.43003684 3 -1
2.036042 5.9292541 0.42715561 3 -1
2.0315733 5.9462929 0.44381157 3 -1
1.9851356 5.9573383 0.42345768 3 -1
1.9573864 5.958746 0.43254846 3 -1
1.9237725 5.9822907 0.45065799 3 -1
1.8996594 5.9858003 0.41204152 3 -1
1.8773724 5.9737988 0.43076411 3 -1
1.8361235 6.0060439 0.43791467 3 -1
1.8158844 6.0045557 0.40632248 3 -1
1.7976589 5.9909792 0.43779159 3 -1
1.7603638 6.0002193 0.40503827 3 -1
1.7069199 6.0112228 0.43358219 3 -1
1.6939571 6.0114055 0.43708432 3 -1
1.6438646 6.0220985 0.43124875 3 -1
1.602031 5.9905591 0.4072153 3 -1
1.5558698 5.988461 0.42713866 3 -1
1.5077512 6.0076761 0.42692921 3 -1
1.4664125 5.9872851 0.42260793 3 -1
1.3925989 5.9744935 0.41251799 3 -1
1.3194366 5.9435091 0.41268775 3 -1
1.2217357 5.8975291 0.41309839 3 -1
1.0452167 5.7975783 0.41044495 3 -1
0.056589842 5.0098705 0.36099744 2 -1
0.066873074 5.1415849 0.35883829 2 -1
0.057429075 5.2419004 0.36636391 2 -1
0.076730728 5.3152542 0.34029257 2 -1
0.09249258 5.4425173 0.35654283 2 -1
0.060194492 5.5454574 0.35453144 2 -1
0.069706202 5.6301966 0.34387207 2 -1
0.070881367 5.7082939 0.3665778 2 -1
0.083368301 5.7809401 0.39652124 2 -1
0.08082056 5.8653159 0.3671684 2 -1
0.083935976 5.9471664 0.38101888 2 -1
0.072274685 6.0389199 0.37168398 2 -1
0.099795341 6.1013432 0.37243178 2 -1
0.082640886 6.1631107 0.37869889 2 -1
0.084364176 6.2457194 0.35719481 2 -1
0.09854579 6.3012276 0.36887684 2 -1
0.093992233 6.3901949 0.37342384 2 -1
0.094773293 6.471632 0.40354374 2 -1
0.091176987 6.5043302 0.40799823 2 -1
0.10634637 6.5781884 0.38399071 2 -1
0.087626934 6.659822 0.3800112 2 -1
0.0940516 6.709619 0.36584967 2 -1
0.093422651 6.785316 0.3798919 2 -1
0.062455654 6.8597579 0.37411496 2 -1
0.10307908 6.8710589 0.36781392 2 -1
3.6635036 4.2281981 0.40519738 3 -1
3.6654243 4.0872655 0.43353611 3 -1
3.6513381 3.8554628 0.40523458 3 -1
2.5666819 5.449389 0.44666573 3 -1
2.4895585 5.558208 0.44654021 3 -1
2.4259918 5.6432881 0.45070902 3 -1
2.3935685 5.6916571 0.46810994 3 -1
2.3359492 5.7394004 0.46547598 3 -1
2.3102665 5.7838907 0.44478771 3 -1
2.2893369 5.795115 0.44626796 3 -1
2.2655835 5.8216624 0.46854874 3 -1
2.2321455 5.8497539 0.42736772 3 -1
2.1929209 5.8664203 0.45130187 3 -1
2.165045 5.8821354 0.45132589 3 -1
2.1164737 5.9006877 0.43080792 3 -1
2.1053238 5.9153929 0.43867531 3 -1
2.0737343 5.9101143 0.46653491 3 -1
2.0205553 5.9274635 0.44133574 3 -1
2.0214796 5.9457269 0.45651388 3 -1
1.9877992 5.9496007 0.44388655 3 -1
1.9480226 5.9613976 0.44227299 3 -1
1.9217708 5.9487677 0.44754282 3 -1
1.9030418 5.9915032 0.44733262 3 -1
1.8690602 5.9958105 0.46575367 3 -1
1.8328614 6.0139046 0.45450872 3 -1
1.8425446 5.9874635 0.46146491 3 -1
1.7780342 6.0000362 0.46616778 3 -1
1.7528918 6.0049648 0.43778878 3 -1
1.7180436 6.0125294 0.44927433 3 -1
1.6748406 6.0119934 0.43246317 3 -1
1.6455536 6.0041265 0.45676073 3 -1
1.6067774 5.986805 0.44225407 3 -1
1.5607653 5.9885511 0.44177106 3 -1
1.5040836 6.0035949 0.44492054 3 -1
1.4724243 5.9863997 0.44222653 3 -1
1.4041185 5.9690452 0.44089177 3 -1
1.3391514 5.954268 0.44959649 3 -1
1.2312334 5.8959045 0.4374781 3 -1
1.0213189 5.7871747 0.43811432 3 -1
0.048865557 5.0158119 0.41771808 2 -1
0.063944101 5.1373301 0.40845644 2 -1
0.051979065 5.2173457 0.4124355 2 -1
0.091396809 5.3291521 0.41317254 2 -1
0.081326008 5.4345803 0.41361588 2 -1
0.081671715 5.5316806 0.42193466 2 -1
0.088853836 5.6217709 0.40105814 2 -1
0.083797216 5.7111912 0.41160253 2 -1
0.073104382 5.7823529 0.42807049 2 -1
0.073403597 5.8724179 0.42844233 2 -1
0.086304665 5.9373512 0.40250167 2 -1
0.0732162 6.0178595 0.42456141 2 -1
0.10143876 6.0991793 0.4203338 2 -1
0.066575766 6.1807652 0.42408165 2 -1
0.078346491 6.2548332 0.41676667 2 -1
0.088888407 6.3196383 0.41301268 2 -1
0.097061872 6.393332 0.43455103 2 -1
0.10371709 6.4440536 0.43247437 2 -1
0.094474316 6.5055571 0.43056539 2 -1
0.069813967 6.5703826 0.44164321 2 -1
0.1205256 6.6624379 0.39544907 2 -1
0.077391386 6.7174315 0.43711615 2 -1
0.07114172 6.7901092 0.42425725 2 -1
0.088683605 6.8509912 0.40986255 2 -1
0.10179663 6.8771491 0.42815131 2 -1
3.6741319 4.2285805 0.46816409 3 -1
3.6458592 4.0967121 0.48862535 3 -1
3.6627703 3.8782179 0.48190254 3 -1
2.5389376 5.4668388 0.48168647 3 -1
2.4851251 5.5733137 0.4675886 3 -1
2.4390955 5.6549072 0.46885002 3 -1
2.381671 5.7026353 0.46361315 3 -1
2.3537123 5.7484961 0.47048458 3 -1
2.3071611 5.7689371 0.47678426 3 -1
2.2563119 5.7835121 0.44982272 3 -1
2.2439175 5.8342295 0.47800156 3 -1
2.2028818 5.8473811 0.47617009 3 -1
2.2013295 5.862093 0.44653586 3 -1
2.1471334 5.9022732 0.45706961 3 -1
2.1267583 5.8985815 0.46900511 3 -1
2.093338 5.9085011 0.47932795 3 -1
2.0689924 5.9171124 0.47918138 3 -1
2.0393107 5.9157863 0.4721747 3 -1
1.9951211 5.9578576 0.47345933 3 -1
1.9909345 5.9548249 0.47246364 3 -1
1.9692879 5.9708815 0.45552617 3 -1
1.9269145 5.9753017 0.47842225 3 -1
1.9052202 5.980885 0.47771686 3 -1
1.8804674 5.9755344 0.45197654 3 -1
1.8615133 5.9932451 0.46573612 3 -1
1.8153231 6.0056605 0.47308603 3 -1
1.7984054 6.0017095 0.45775035 3 -1
1.7480819 6.0082479 0.47149283 3 -1
1.7254887 5.9921885 0.48675969 3 -1
1.6879332 6.0037274 0.47940764 3 -1
1.6555879 6.0280566 0.46050525 3 -1
1.6015415 6.0104814 0.46891299 3 -1
1.5700066 6.0267363 0.47619277 3 -1
1.5231134 6.0054741 0.46898046 3 -1
1.4585943 5.9876003 0.46758914 3 -1
1.4110246 5.9936171 0.46480891 3 -1
1.3329325 5.9558196 0.48501086 3 -1
1.2252482 5.9064722 0.47630808 3 -1
1.0407213 5.7938385 0.4735297 3 -1
0.059777975 5.0073295 0.46264988 2 -1
0.054755688 5.1353517 0.46249598 2 -1
0.055705786 5.244504 0.46941316 2 -1
0.077708006 5.3522744 0.45329511 2 -1
0.070501566 5.427814 0.48757255 2 -1
0.087455273 5.5292168 0.46179935 2 -1
0.080060005 5.6068177 0.45544338 2 -1
0.077020407 5.7072296 0.47044578 2 -1
0.069771767 5.7866611 0.46694112 2 -1
0.066642761 5.8772616 0.46650195 2 -1
0.086805582 5.9436622 0.46403733 2 -1
0.089645863 6.0089593 0.46510366 2 -1
0.1046977 6.0993929 0.45937926 2 -1
0.09112525 6.1715717 0.46808872 2 -1
0.085614204 6.2489161 0.45821565 2 -1
0.10932922 6.3108115 0.47623575 2 -1
0.095408916 6.3573365 0.47408238 2 -1
0.088722944 6.4495368 0.45953801 2 -1
0.08186698 6.5186014 0.48958594 2 -1
0.10954762 6.5836 0.46402439 2 -1
0.095677853 6.6535954 0.46770465 2 -1
0.10737467 6.7170835 0.45034495 2 -1
0.08571291 6.7660847 0.461927 2 -1
0.10311556 6.8561363 0.45720014 2 -1
0.098999739 6.8956413 0.47498649 2 -1
3.6803923 4.2164407 0.5546118 3 -1
3.6512647 4.0878911 0.55107152 3 -1
3.651572 3.8679774 0.54711199 3 -1
2.5546052 5.4613514 0.48749742 3 -1
2.4877203 5.5702343 0.49883959 3 -1
2.4420762 5.6648321 0.48758012 3 -1
2.4006767 5.7016554 0.50146502 3 -1
2.3524458 5.7115831 0.48429209 3 -1
2.3273711 5.7656803 0.50455225 3 -1
2.280597 5.7929249 0.48571014 3 -1
2.2402372 5.8147564 0.48491195 3 -1
2.2178826 5.837471 0.50442588 3 -1
2.1818528 5.8714156 0.48462838 3 -1
2.1611869 5.8898611 0.49174356 3 -1
2.1347723 5.884233 0.51054358 3 -1
2.0887718 5.9119964 0.48247692 3 -1
2.063401 5.9208045 0.50457352 3 -1
2.026298 5.9307146 0.48926073 3 -1
2.0014532 5.9542389 0.49848628 3 -1
1.9885626 5.9443016 0.51381415 3 -1
1.9499003 5.968195 0.49648923 3 -1
1.9437287 5.9765706 0.50409335 3 -1
1.91869 5.976305 0.50891024 3 -1
1.8831582 5.989922 0.47942019 3 -1
1.8354144 5.9772611 0.48477969 3 -1
1.8064272 6.0058107 0.49461845 3 -1
1.7893729 6.0136657 0.51359332 3 -1
1.7298681 5.9849029 0.48979422 3 -1
1.7254819 6.0070786 0.49838674 3 -1
1.6936461 6.0092154 0.50585985 3 -1
1.6423576 6.0128589 0.50179631 3 -1
1.604885 5.9999456 0.48726848 3 -1
1.586668 5.9960971 0.51121318 3 -1
1.5366514 6.0081334 0.49116921 3 -1
1.4669341 5.9941072 0.51041991 3 -1
1.4002855 5.9645023 0.50628918 3 -1
1.3412075 5.9380641 0.50333136 3 -1
1.2377573 5.8970551 0.49784866 3 -1
1.0415536 5.8083625 0.50837249 3 -1
0.059815645 5.0097132 0.53829592 2 -1
0.066115856 5.1209259 0.53475523 2 -1
0.06829381 5.2264891 0.53848356 2 -1
0.071488857 5.3314996 0.53371871 2 -1
0.069791317 5.4442019 0.5320847 2 -1
0.081762552 5.5310564 0.52434063 2 -1
0.092368364 5.6277266 0.52623272 2 -1
0.068425179 5.71734 0.52578199 2 -1
0.081343174 5.7925386 0.51499951 2 -1
0.087264299 5.8781023 0.52322721 2 -1
0.077351093 5.9587555 0.52099943 2 -1
0.087888479 6.0245214 0.51589459 2 -1
0.10078192 6.0983858 0.52680892 2 -1
0.085264921 6.1932945 0.51931006 2 -1
0.097794771 6.2276158 0.52011764 2 -1
0.10202217 6.3218069 0.51967865 2 -1
0.092666149 6.3844409 0.5214988 2 -1
0.095034838 6.4399652 0.49503934 2 -1
0.085196733 6.489666 0.51199722 2 -1
0.099306345 6.592185 0.50677866 2 -1
0.083732367 6.6647544 0.51091284 2 -1
0.09230876 6.713542 0.50823545 2 -1
0.10474086 6.7849741 0.52103585 2 -1
0.10283136 6.8396354 0.52920872 2 -1
0.10242248 6.8792963 0.52799642 2 -1
3.6818881 4.2148595 0.59639513 3 -1
3.660871 4.0812449 0.61917126 3 -1
3.6632156 3.8733025 0.61352545 3 -1
2.5691185 5.4562216 0.52853692 3 -1
2.4862742 5.5641475 0.55506492 3 -1
2.4402061 5.640389 0.54424345 3 -1
2.3909829 5.6719089 0.54091316 3 -1
2.3481817 5.7419047 0.5236029 3 -1
2.3105705 5.7658548 0.50669253 3 -1
2.272373 5.8031802 0.49607611 3 -1
2.2391455 5.8247542 0.51012838 3 -1
2.2135577 5.8390493 0.52478057 3 -1
2.1807663 5.870976 0.52681714 3 -1
2.1466832 5.8785963 0.50850296 3 -1
2.1235635 5.8971262 0.52692729 3 -1
2.0966973 5.9124813 0.51240528 3 -1
2.0584474 5.9386711 0.51661122 3 -1
2.0374827 5.941607 0.50689739 3 -1
2.022789 5.9395113 0.5153591 3 -1
1.9858779 5.9589744 0.51051605 3 -1
1.9788984 5.9670334 0.51703167 3 -1
1.9260172 5.9668846 0.49781746 3 -1
1.8928337 5.9689255 0.52028179 3 -1
1.8650217 5.9839287 0.51226014 3 -1
1.8530746 6.0126982 0.52986795 3 -1
1.8146545 6.0029459 0.50609404 3 -1
1.7643292 5.9924226 0.51516408 3 -1
1.7614956 5.9886889 0.52297491 3 -1
1.7280524 6.0254068 0.51740563 3 -1
1.6856501 6.017673 0.50597543 3 -1
1.6447141 6.0034471 0.50002712 3 -1
1.6170671 5.9937377 0.50530833 3 -1
1.5684831 6.0065041 0.51969081 3 -1
1.527879 6.0007539 0.52078342 3 -1
1.4565687 6.0020127 0.50860608 3 -1
1.3968687 5.9473014 0.51010269 3 -1
1.3426414 5.9390826 0.51466686 3 -1
1.2343663 5.9044838 0.52154368 3 -1
1.0264652 5.7923188 0.5128023 3 -1
0.05036974 5.0024376 0.58783954 2 -1
0.071174383 5.1257658 0.57262862 2 -1
0.06336832 5.2356415 0.57857877 2 -1
0.054027319 5.3492303 0.58809412 2 -1
0.082998991 5.4413924 0.57260537 2 -1
0.078595161 5.5657487 0.56635606 2 -1
0.085609913 5.6112165 0.57549739 2 -1
0.079025984 5.6993103 0.58606273 2 -1
0.08560133 5.801302 0.58365011 2 -1
0.097104073 5.8727107 0.55901587 2 -1
0.081567764 5.9478264 0.5744608 2 -1
0.081071377 6.0174456 0.56470561 2 -1
0.097558975 6.1077604 0.56522578 2 -1
0.082418442 6.1642971 0.56890804 2 -1
0.076421976 6.2341776 0.56974751 2 -1
0.090167522 6.3249121 0.55817926 2 -1
0.10457015 6.3680367 0.56049472 2 -1
0.09056592 6.4552855 0.55189121 2 -1
0.099696398 6.5140867 0.55731785 2 -1
0.081499338 6.6024737 0.55920458 2 -1
0.090004921 6.6626315 0.55874157 2 -1
0.085902929 6.7143531 0.54253697 2 -1
0.11829925 6.7945476 0.54657793 2 -1
0.1000843 6.8598499 0.56364924 2 -1
0.11517024 6.8968391 0.55368817 2 -1
3.6924396 4.2301874 0.66798073 3 -1
3.6532998 4.0828328 0.67571634 3 -1
3.6344862 3.8700404 0.66999114 3 -1
2.5661454 5.4693756 0.56980467 3 -1
2.4734852 5.5583186 0.57224321 3 -1
2.4350386 5.6281843 0.54217213 3 -1
2.3790081 5.6794038 0.54547822 3 -1
2.352663 5.7399521 0.54362971 3 -1
2.3079119 5.7702527 0.5459978 3 -1
2.2574124 5.7970777 0.52903819 3 -1
2.2419882 5.8158298 0.5472014 3 -1
2.2108233 5.8457088 0.53131235 3 -1
2.1706176 5.8739562 0.52727121 3 -1
2.1444328 5.8845863 0.53616393 3 -1
2.1132522 5.9061842 0.5191285 3 -1
2.0817871 5.9077125 0.51872814 3 -1
2.0699325 5.9204154 0.52397209 3 -1
2.0489304 5.929729 0.5208686 3 -1
1.9969289 5.9489326 0.55126584 3 -1
1.9882212 5.962605 0.54170752 3 -1
1.9523394 5.9474297 0.50848114 3 -1
1.9286177 5.9718814 0.5388782 3 -1
1.9098461 5.9718614 0.54549885 3 -1
1.8752894 5.9906077 0.53049618 3 -1
1.8397563 5.9934478 0.53161496 3 -1
1.821581 6.0070186 0.53092766 3 -1
1.7896132 5.996099 0.54357243 3 -1
1.7564029 6.0002484 0.5475024 3 -1
1.707395 6.0026131 0.53661251 3 -1
1.6766262 5.9981294 0.52637726 3 -1
1.6557546 6.004415 0.54587358 3 -1
1.5904223 6.0068831 0.5356977 3 -1
1.5639706 6.0011129 0.54158032 3 -1
1.523721 5.9924049 0.54030126 3 -1
1.4807512 5.983242 0.53207612 3 -1
1.406198 5.9718733 0.57431471 3 -1
1.3432043 5.9523401 0.54326981 3 -1
1.2400454 5.9042459 0.56545544 3 -1
1.0383433 5.7726321 0.56925249 3 -1
0.076754093 5.0065804 0.66057032 2 -1
0.069880247 5.1234207 0.64837056 2 -1
0.064320803 5.2460718 0.63590282 2 -1
0.060677528 5.3606839 0.64062935 2 -1
0.065611362 5.4317522 0.62357032 2 -1
0.074997663 5.5457392 0.62573987 2 -1
0.065643072 5.6146121 0.62291527 2 -1
0.088361502 5.7037644 0.62563092 2 -1
0.078400612 5.8017144 0.61610079 2 -1
0.072757244 5.8668408 0.63128883 2 -1
0.098444223 5.9520941 0.62066448 2 -1
0.08683157 6.0110903 0.61508954 2 -1
0.082969904 6.1137466 0.60584962 2 -1
0.073607206 6.1642299 0.61088389 2 -1
0.097101212 6.24791 0.62723392 2 -1
0.093972206 6.3215227 0.61111081 2 -1
0.099687815 6.4014697 0.60082436 2 -1
0.088641167 6.437757 0.60995752 2 -1
0.086963892 6.5168839 0.59766138 2 -1
0.1106987 6.5823803 0.59781355 2 -1
0.089599848 6.6584921 0.60193437 2 -1
0.10028648 6.7181377 0.59693736 2 -1
0.091682673 6.7860332 0.61276257 2 -1
0.085371971 6.8295226 0.59731007 2 -1
0.10933518 6.8826556 0.61221391 2 -1
3.6908097 4.2201524 0.71393204 3 -1
3.656528 4.0631657 0.7362113 3 -1
3.656281 3.8804522 0.75696504 3 -1
2.5491285 5.4586124 0.59656161 3 -1
2.4735925 5.5716028 0.58087677 3 -1
2.4376097 5.627254 0.58738995 3 -1
2.387291 5.6978197 0.56781685 3 -1
2.3668678 5.7347822 0.57725024 3 -1
2.3190861 5.7568359 0.56381786 3 -1
2.2912488 5.7948227 0.55981433 3 -1
2.2412107 5.8116031 0.58592469 3 -1
2.2134666 5.8365717 0.57064539 3 -1
2.1686201 5.8587794 0.53931743 3 -1
2.1541479 5.8907776 0.53957319 3 -1
2.111335 5.9014845 0.54219234 3 -1
2.0882051 5.9086256 0.54380107 3 -1
2.0584862 5.9268579 0.54983234 3 -1
2.037962 5.9488416 0.54359293 3 -1
2.0055151 5.962368 0.56064838 3 -1
1.9930151 5.9467964 0.55669785 3 -1
1.9652107 5.9733243 0.56095302 3 -1
1.9488673 5.9758892 0.56845361 3 -1
1.9120607 5.989882 0.55371702 3 -1
1.8757277 5.9736719 0.56135559 3 -1
1.8574231 5.9836483 0.54777932 3 -1
1.8106496 5.9888034 0.56336653 3 -1
1.7885523 6.0029917 0.56594306 3 -1
1.763189 6.0084434 0.54273248 3 -1
1.7139549 6.0115023 0.55618608 3 -1
1.6907225 5.9889479 0.54568422 3 -1
1.6400263 6.0021973 0.55609083 3 -1
1.6082346 6.008873 0.55642372 3 -1
1.565926 6.0012293 0.57426178 3 -1
1.5126008 6.0069447 0.57634318 3 -1
1.4601154 5.9975853 0.56940222 3 -1
1.3990614 5.9736109 0.57116365 3 -1
1.3206396 5.9492993 0.57884508 3 -1
1.2350342 5.9088011 0.5760842 3 -1
1.0508471 5.780468 0.60640252 3 -1
0.072048664 5.025671 0.70601135 2 -1
0.070012808 5.1267323 0.71663195 2 -1
0.072800636 5.2476811 0.68327403 2 -1
0.064149141 5.3218679 0.69614625 2 -1
0.079354286 5.4423361 0.67741829 2 -1
0.088429928 5.5339451 0.67842382 2 -1
0.096138 5.5958462 0.69218248 2 -1
0.087182283 5.708827 0.67328769 2 -1
0.079408646 5.7808433 0.67400777 2 -1
0.087683916 5.881011 0.67775714 2 -1
0.090676546 5.9337702 0.67619133 2 -1
0.096505404 6.0176835 0.66985887 2 -1
0.088521004 6.1007023 0.66435421 2 -1
0.089281797 6.1704373 0.64579636 2 -1
0.091045618 6.2449064 0.66234434 2 -1
0.094446898 6.3220725 0.65605175 2 -1
0.10391808 6.3747144 0.64775425 2 -1
0.078568697 6.4563117 0.6524837 2 -1
0.089830399 6.5334821 0.64421576 2 -1
0.093743324 6.578898 0.65046036 2 -1
0.079104185 6.651032 0.6669451 2 -1
0.093791246 6.7132864 0.67702341 2 -1
0.10155654 6.7816386 0.6412459 2 -1
0.079993725 6.8495555 0.64835894 2 -1
0.092253923 6.8807883 0.66715181 2 -1
3.6875296 4.2224016 0.79837704 3 -1
3.6478124 4.0727463 0.80414593 3 -1
3.6495819 3.8771851 0.83829558 3 -1
2.5582433 5.4579773 0.63301432 3 -1
2.4924574 5.5525951 0.62142873 3 -1
2.4361494 5.6600361 0.61093128 3 -1
2.3869705 5.7173376 0.58436298 3 -1
2.3569953 5.7459803 0.58986026 3 -1
2.3117738 5.7784948 0.58090687 3 -1
2.2709377 5.806571 0.58792973 3 -1
2.2417881 5.8081594 0.60445923 3 -1
2.2091398 5.8502378 0.56259483 3 -1
2.1562519 5.8728976 0.58279043 3 -1
2.1654115 5.8684025 0.57531011 3 -1
2.130028 5.8791203 0.57873845 3 -1
2.0976295 5.9052062 0.57214421 3 -1
2.0643811 5.9230599 0.56744355 3 -1
2.0382211 5.9355845 0.5883528 3 -1
2.0096469 5.9417095 0.56502515 3 -1
2.004611 5.9390674 0.57113457 3 -1
1.9560688 5.9740939 0.58851385 3 -1
1.9292026 5.9678245 0.58046216 3 -1
1.8978727 5.9835806 0.55338222 3 -1
1.8525045 5.9774547 0.56160051 3 -1
1.8536917 6.0029192 0.57588208 3 -1
1.818874 5.9734917 0.57800424 3 -1
1.7734482 6.0057306 0.57341498 3 -1
1.7482834 5.9919415 0.56459534 3 -1
1.7369696 6.0122423 0.58551776 3 -1
1.6812148 6.0294352 0.5705691 3 -1
1.6656699 6.0064154 0.57671762 3 -1
1.6296425 6.0009499 0.57019794 3 -1
1.5457697 6.0026426 0.59664059 3 -1
1.5172307 5.9999123 0.59054798 3 -1
1.4791856 5.9918599 0.60048568 3 -1
1.4020257 5.9834065 0.58969063 3 -1
1.3390949 5.95327 0.62116563 3 -1
1.2348168 5.9102163 0.62548411 3 -1
1.0484722 5.8119378 0.64262688 3 -1
0.065325975 4.9998603 0.78117484 2 -1
0.055760384 5.1127663 0.77600533 2 -1
0.075271368 5.2521629 0.77762043 2 -1
0.077670097 5.364522 0.73859048 2 -1
0.084968328 5.4512868 0.74305284 2 -1
0.061871767 5.5187883 0.7459107 2 -1
0.072798967 5.6260133 0.73038501 2 -1
0.078515768 5.7156305 0.7436527 2 -1
0.081898212 5.7907934 0.74065125 2 -1
0.081789017 5.8857188 0.72857702 2 -1
0.086060047 5.9473562 0.72474706 2 -1
0.08874917 6.0290165 0.71753782 2 -1
0.09122777 6.0982046 0.69864821 2 -1
0.11476493 6.1598749 0.70479763 2 -1
0.08432126 6.2453322 0.70898384 2 -1
0.086966515 6.3279495 0.71907657 2 -1
0.10208392 6.3890767 0.71567678 2 -1
0.10555553 6.4534335 0.71002066 2 -1
0.090673447 6.5332451 0.71758074 2 -1
0.09680438 6.5702949 0.68921536 2 -1
0.10435939 6.6537757 0.684147 2 -1
0.085981607 6.7110486 0.69016135 2 -1
0.11188364 6.7802534 0.68120426 2 -1
0.10057998 6.8202648 0.69599497 2 -1
0.098968744 6.8764687 0.70108521 2 -1
3.6849308 4.2162623 0.86339301 3 -1
3.6531672 4.0749512 0.8867265 3 -1
3.6598001 3.8738661 0.90293622 3 -1
2.5461707 5.452384 0.65200961 3 -1
2.4988682 5.5846748 0.6424557 3 -1
2.4366403 5.6509042 0.61761683 3 -1
2.3883452 5.6889892 0.63118172 3 -1
2.3357542 5.7435789 0.62003714 3 -1
2.3030624 5.7685304 0.60874277 3 -1
2.2928305 5.8075743 0.60790837 3 -1
2.2503717 5.8225946 0.62242645 3 -1
2.2127657 5.8426123 0.60151434 3 -1
2.1894622 5.8790817 0.59496963 3 -1
2.1420472 5.8897243 0.57680196 3 -1
2.1272891 5.8804784 0.60802013 3 -1
2.1005731 5.8996158 0.61147577 3 -1
2.0615773 5.902565 0.60317916 3 -1
2.0414078 5.9401383 0.58326209 3 -1
2.024713 5.9438877 0.59122747 3 -1
1.9808333 5.964623 0.5825606 3 -1
1.9685633 5.9744191 0.58166075 3 -1
1.9298378 5.9782972 0.59724689 3 -1
1.8985045 6.0040116 0.60493243 3 -1
1.8592801 5.9756007 0.58972275 3 -1
1.8439686 5.9978819 0.60302925 3 -1
1.7942921 5.9941902 0.59780061 3 -1
1.7927262 5.9954071 0.58392012 3 -1
1.740667 5.9945998 0.59800589 3 -1
1.7050903 6.008286 0.60647535 3 -1
1.6868656 6.0142317 0.60951895 3 -1
1.6428995 5.9976621 0.62237644 3 -1
1.5985918 6.0103621 0.61799824 3 -1
1.5675499 6.0026135 0.59414077 3 -1
1.5170345 6.014174 0.61212391 3 -1
1.4506192 5.9996142 0.62241888 3 -1
1.417618 5.9871488 0.62571412 3 -1
1.3225212 5.9664345 0.64296913 3 -1
1.2304881 5.9062467 0.66491359 3 -1
1.0660461 5.7871552 0.67446923 3 -1
0.071855307 5.0054421 0.81846142 2 -1
0.079600573 5.1291885 0.82196963 2 -1
0.060113668 5.2461953 0.82632196 2 -1
0.073012114 5.3354282 0.80426848 2 -1
0.088274956 5.4496679 0.79806417 2 -1
0.074026346 5.5432749 0.7855106 2 -1
0.064847946 5.6171083 0.79850793 2 -1
0.077500343 5.7174344 0.77586728 2 -1
0.069939852 5.8062992 0.78990948 2 -1
0.071648121 5.8607874 0.7715472 2 -1
0.089173555 5.9442163 0.76487112 2 -1
0.082871914 6.0391107 0.78270417 2 -1
0.091210604 6.1002092 0.75453496 2 -1
0.07588625 6.177155 0.7599299 2 -1
0.088848591 6.2466865 0.76040351 2 -1
0.076193333 6.2909031 0.76021576 2 -1
0.10309529 6.3741817 0.75429392 2 -1
0.085476875 6.4701567 0.77012789 2 -1
0.088185787 6.5109153 0.75714594 2 -1
0.09705925 6.5995307 0.7436012 2 -1
0.10804653 6.6415415 0.75009608 2 -1
0.098556995 6.7158818 0.75843811 2 -1
0.098102093 6.7992039 0.7586242 2 -1
0.10958171 6.8482604 0.73335665 2 -1
0.10464644 6.8762445 0.72453976 2 -1
3.6803012 4.2382727 0.90723497 3 -1
3.6664422 4.0848269 0.93669146 3 -1
3.6609039 3.8671396 0.97391915 3 -1
2.5506191 5.4507027 0.69520986 3 -1
2.4955394 5.5744615 0.6620211 3 -1
2.4472132 5.6532888 0.65879548 3 -1
2.4028041 5.7017221 0.66927075 3 -1
2.3608897 5.7218037 0.63437533 3 -1
2.3028569 5.7931385 0.64668167 3 -1
2.2859607 5.8076234 0.62374711 3 -1
2.2649994 5.8242879 0.62893426 3 -1
2.2286105 5.8326693 0.6082989 3 -1
2.1727114 5.8625755 0.6166625 3 -1
2.1477427 5.8686619 0.61747837 3 -1
2.1295068 5.9001608 0.60760868 3 -1
2.0937245 5.907434 0.60852075 3 -1
2.0800173 5.9199309 0.59876353 3 -1
2.0341024 5.9385242 0.63101673 3 -1
2.0198886 5.9352798 0.6321677 3 -1
1.9838512 5.959363 0.61103863 3 -1
1.9542946 5.9598742 0.60780615 3 -1
1.9381442 5.9785414 0.61571419 3 -1
1.898881 5.9850941 0.61950672 3 -1
1.8688227 6.0058913 0.62308824 3 -1
1.8448349 6.0027647 0.6198535 3 -1
1.8275614 5.9953723 0.61756444 3 -1
1.7914777 5.9993558 0.61730498 3 -1
1.7440684 5.9921808 0.62833256 3 -1
1.7060027 6.0114264 0.60937738 3 -1
1.6877582 5.9959159 0.61493754 3 -1
1.6530342 5.9960256 0.61942428 3 -1
1.6035607 6.0106049 0.64491516 3 -1
1.5488825 6.0066633 0.64951426 3 -1
1.5251451 6.0094595 0.63328737 3 -1
1.4673636 5.9752502 0.64196241 3 -1
1.3775175 5.9814763 0.64445198 3 -1
1.345046 5.9715147 0.66426879 3 -1
1.2386997 5.9056058 0.67984551 3 -1
1.0337464 5.789185 0.69349492 3 -1
0.070880175 5.0214915 0.88583988 2 -1
0.07643652 5.1199212 0.89207304 2 -1
0.060435772 5.2600923 0.87715936 2 -1
0.060661316 5.3499651 0.87481201 2 -1
0.062433243 5.4388199 0.87550819 2 -1
0.054517746 5.5540428 0.8480441 2 -1
0.096276283 5.6229906 0.84352922 2 -1
0.079860926 5.7053089 0.83317691 2 -1
0.067584991 5.7819109 0.84255445 2 -1
0.055508375 5.8916674 0.83338761 2 -1
0.084807873 5.9525061 0.82321197 2 -1
0.089206696 6.034337 0.81307411 2 -1
0.10287619 6.0926571 0.80537122 2 -1
0.094970465 6.1824198 0.81328893 2 -1
0.09126687 6.2557364 0.81677109 2 -1
0.088941097 6.3174653 0.79976928 2 -1
0.082525015 6.3910809 0.80848736 2 -1
0.10273957 6.456089 0.79242736 2 -1
0.098950148 6.5314293 0.79903793 2 -1
0.090067625 6.5786428 0.79494131 2 -1
0.09535265 6.6312418 0.8036027 2 -1
0.096565723 6.7176118 0.8019141 2 -1
0.10460615 6.7842112 0.79285133 2 -1
0.10475588 6.8415217 0.80020285 2 -1
0.092155933 6.8712773 0.77752614 2 -1
3.6904426 4.2088814 0.99887991 3 -1
3.6468413 4.0852289 1.0277953 3 -1
3.6259565 3.8749437 1.0432435 3 -1
2.5659895 5.4426298 0.70532691 3 -1
2.4849684 5.5783467 0.69990861 3 -1
2.4335146 5.6414485 0.70624125 3 -1
2.3780401 5.7066431 0.67857426 3 -1
2.3404493 5.7366948 0.64209563 3 -1
2.3100712 5.7605577 0.64664888 3 -1
2.2782564 5.8052559 0.65564501 3 -1
2.2435372 5.838552 0.63630116 3 -1
2.195487 5.8609257 0.65431488 3 -1
2.181169 5.8667884 0.65080833 3 -1
2.1597605 5.8844676 0.62175906 3 -1
2.1341033 5.8752728 0.63596594 3 -1
2.0945747 5.9173994 0.63828379 3 -1
2.0755684 5.931509 0.64027536 3 -1
2.0357506 5.9485388 0.62658721 3 -1
2.0022507 5.9508796 0.65994751 3 -1
1.9952235 5.9556427 0.62856263 3 -1
1.9607444 5.9824305 0.63647246 3 -1
1.9269974 5.983696 0.64457196 3 -1
1.9150412 5.9585371 0.63561249 3 -1
1.8819277 5.9879141 0.63465339 3 -1
1.8555098 5.9981322 0.6328826 3 -1
1.8139205 6.0101733 0.64137536 3 -1
1.7824023 6.0088372 0.63444614 3 -1
1.7473165 6.0052924 0.66564691 3 -1
1.7197616 6.0101428 0.647349 3 -1
1.6676378 5.9994802 0.64625877 3 -1
1.620508 6.0044837 0.64637798 3 -1
1.5969889 6.0102921 0.6603635 3 -1
1.5557218 6.0089931 0.66306925 3 -1
1.5153217 5.9941869 0.66589808 3 -1
1.4648416 5.9835558 0.65683621 3 -1
1.409348 5.9514637 0.66934538 3 -1
1.3343265 5.966783 0.68946719 3 -1
1.2358363 5.9008331 0.70445704 3 -1
1.0535097 5.7901039 0.74664664 3 -1
0.068369389 5.0151401 0.96340346 2 -1
0.059982061 5.1372242 0.95072043 2 -1
0.046526194 5.2442474 0.93271321 2 -1
0.055481434 5.3479156 0.92688066 2 -1
0.089782476 5.4423604 0.92817223 2 -1
0.098398685 5.5189571 0.9139055 2 -1
0.089760303 5.614327 0.88693327 2 -1
0.090199947 5.7086096 0.89968634 2 -1
0.068363428 5.7988157 0.87476134 2 -1
0.075167418 5.8744025 0.87581766 2 -1
0.08086729 5.9331532 0.86846662 2 -1
0.097071171 6.0090408 0.8622694 2 -1
0.10103893 6.0963483 0.87034953 2 -1
0.10409617 6.1683698 0.88061619 2 -1
0.10195088 6.2484803 0.84283477 2 -1
0.10801315 6.3212481 0.86862791 2 -1
0.093736172 6.3813348 0.85283208 2 -1
0.097596169 6.4517655 0.85489339 2 -1
0.074694872 6.526855 0.845002 2 -1
0.088400602 6.5849257 0.82569015 2 -1
0.084534883 6.6687999 0.83247685 2 -1
0.08669734 6.7141309 0.82686257 2 -1
0.12030244 6.7773361 0.83500844 2 -1
0.08908534 6.8474464 0.85102302 2 -1
0.10626245 6.9010134 0.83991218 2 -1
3.6813078 4.2296801 1.0718062 3 -1
3.6469107 4.1146193 1.0693389 3 -1
3.6498585 3.8600667 1.1279659 3 -1
2.5475466 5.4625669 0.75662524 3 -1
2.4984908 5.57127 0.7421937 3 -1
2.4352493 5.6353755 0.70399153 3 -1
2.3775547 5.6984096 0.69783473 3 -1
2.3490632 5.7374792 0.69694048 3 -1
2.3341031 5.7932787 0.66944265 3 -1
2.2893665 5.7976718 0.67457306 3 -1
2.2498999 5.8252692 0.6836471 3 -1
2.2138221 5.8504138 0.67195225 3 -1
2.1738482 5.8556857 0.68807548 3 -1
2.1423872 5.8717279 0.66074944 3 -1
2.1301744 5.8937588 0.64054978 3 -1
2.1042161 5.917099 0.64831215 3 -1
2.0539649 5.912396 0.64524341 3 -1
2.0412054 5.9425941 0.65714806 3 -1
1.9880979 5.9283576 0.66665387 3 -1
1.9890308 5.9686418 0.65268445 3 -1
1.9689877 5.9341393 0.68352312 3 -1
1.918061 5.9411907 0.65607393 3 -1
1.9087039 5.9746308 0.65375733 3 -1
1.8821063 5.9904299 0.66251516 3 -1
1.858987 5.9928112 0.67129749 3 -1
1.8099079 5.9987812 0.66992408 3 -1
1.7994621 6.0015063 0.65632761 3 -1
1.7481065 6.0153942 0.64554697 3 -1
1.7125607 6.0155587 0.65918636 3 -1
1.6933111 6.0007334 0.68117249 3 -1
1.6499331 6.0107136 0.68339902 3 -1
1.6091763 6.0019951 0.67754602 3 -1
1.5692225 6.0253735 0.68925142 3 -1
1.5243969 6.0125704 0.67876577 3 -1
1.4741933 5.990099 0.68942964 3 -1
1.4040599 5.9729896 0.71119779 3 -1
1.3375243 5.9679728 0.70224452 3 -1
1.2372512 5.8971958 0.74382424 3 -1
1.0543755 5.812016 0.77081299 3 -1
0.051085949 5.0170746 1.0348058 2 -1
0.088416576 5.1431398 1.0063004 2 -1
0.070483446 5.2503457 0.99944443 2 -1
0.073473454 5.3326421 0.96855921 2 -1
0.061655045 5.4464135 0.96986115 2 -1
0.084460735 5.5460172 0.96819228 2 -1
0.10699773 5.6238885 0.95408654 2 -1
0.073919296 5.6957436 0.94852024 2 -1
0.091157675 5.7940302 0.95314717 2 -1
0.092604399 5.8675323 0.92317748 2 -1
0.09443593 5.9584708 0.91770673 2 -1
0.084612846 6.052237 0.92266464 2 -1
0.095183849 6.1005015 0.9065569 2 -1
0.074992418 6.1742969 0.89025033 2 -1
0.11128211 6.2482028 0.89508665 2 -1
0.093045473 6.3073225 0.89919722 2 -1
0.10515213 6.3818865 0.890131 2 -1
0.11842489 6.4678745 0.88022316 2 -1
0.087582588 6.5291491 0.86924267 2 -1
0.10467768 6.5883069 0.87740505 2 -1
0.10466504 6.642447 0.88640785 2 -1
0.11314392 6.7214456 0.89231199 2 -1
0.085595131 6.7895274 0.8739239 2 -1
0.092720985 6.8425355 0.8995527 2 -1
0.11857867 6.8830724 0.87506717 2 -1
3.685544 4.2228975 1.1401536 3 -1
3.6379843 4.0888739 1.1602494 3 -1
3.6443582 3.8790479 1.1952323 3 -1
2.539479 5.4438968 0.78413564 3 -1
2.4891491 5.565989 0.77911603 3 -1
2.4625974 5.6383286 0.74074912 3 -1
2.3901231 5.7085466 0.74235833 3 -1
2.3464432 5.7380495 0.70791435 3 -1
2.3089046 5.7828021 0.70608264 3 -1
2.2774997 5.8026896 0.69707614 3 -1
2.2591996 5.831358 0.69818664 3 -1
2.2240987 5.8367763 0.69052821 3 -1
2.1855111 5.881505 0.68343776 3 -1
2.1569014 5.8774481 0.65206265 3 -1
2.1443145 5.888165 0.6849767 3 -1
2.0902934 5.9015698 0.67929637 3 -1
2.0648689 5.9272237 0.68216932 3 -1
2.065546 5.9359226 0.6839751 3 -1
2.0039625 5.9473805 0.67268825 3 -1
1.9878128 5.9528074 0.67362899 3 -1
1.951843 5.9658365 0.67752576 3 -1
1.9325051 5.9790578 0.69609714 3 -1
1.900888 5.9652052 0.69149554 3 -1
1.8653667 6.01264 0.67739928 3 -1
1.849833 5.9916821 0.66945559 3 -1
1.8095465 5.9981251 0.68523014 3 -1
1.7924438 6.0085325 0.68666565 3 -1
1.7664491 6.0266042 0.70190692 3 -1
1.7057841 6.0021086 0.70470679 3 -1
1.6885865 6.0103598 0.69184124 3 -1
1.6572428 6.0017118 0.6872493 3 -1
1.6125815 5.9904966 0.69019157 3 -1
1.5587771 6.0048208 0.71519256 3 -1
1.5223901 6.0118527 0.70733023 3 -1
1.4731522 6.0008836 0.72534049 3 -1
1.3955173 5.9703393 0.73203146 3 -1
1.3429744 5.9532952 0.76590794 3 -1
1.2208823 5.8984547 0.74384511 3 -1
1.0504118 5.8054256 0.83597231 3 -1
0.074966908 5.0241194 1.0801947 2 -1
0.070978403 5.1286988 1.0774509 2 -1
0.076916456 5.2413998 1.0604479 2 -1
0.072968483 5.342185 1.0287663 2 -1
0.09137249 5.440084 1.0212232 2 -1
0.086061954 5.549901 1.0191517 2 -1
0.081714153 5.6336417 1.0033231 2 -1
0.079067945 5.7174082 0.98887795 2 -1
0.083748341 5.8047123 0.9771288 2 -1
0.088960648 5.8567019 0.96582627 2 -1
0.093597889 5.9503841 0.97178346 2 -1
0.098104715 6.028553 0.98111057 2 -1
0.11142039 6.0922084 0.95675397 2 -1
0.096431017 6.161068 0.97096425 2 -1
0.067427874 6.253406 0.9309622 2 -1
0.10009742 6.3264737 0.92558455 2 -1
0.085967541 6.394659 0.94609427 2 -1
0.10808182 6.4597025 0.93979347 2 -1
0.098541975 6.527451 0.94086158 2 -1
0.10112596 6.5723972 0.93108797 2 -1
0.096917868 6.6493292 0.94538093 2 -1
0.10890913 6.7151527 0.93402326 2 -1
0.12186408 6.7929735 0.91892803 2 -1
0.096033335 6.875782 0.93604183 2 -1
0.11859679 6.8873248 0.92775166 2 -1
3.6908484 4.2179928 1.2058675 3 -1
3.6674552 4.086472 1.2239437 3 -1
3.6499176 3.8691225 1.2600305 3 -1
2.5570271 5.4579949 0.82110274 3 -1
2.4916427 5.5731835 0.80187178 3 -1
2.4329581 5.6427431 0.78197479 3 -1
2.3908935 5.6879692 0.76049739 3 -1
2.347451 5.7232819 0.75715494 3 -1
2.3114204 5.7539597 0.74296004 3 -1
2.260581 5.7982488 0.71921372 3 -1
2.2579834 5.8485456 0.72324908 3 -1
2.2117641 5.8422885 0.71417177 3 -1
2.1983383 5.8591604 0.71667778 3 -1
2.145081 5.8821626 0.70966232 3 -1
2.1189775 5.9036727 0.72157097 3 -1
2.0928588 5.9050303 0.69377756 3 -1
2.0418591 5.9234862 0.69602281 3 -1
2.0526052 5.937851 0.69624519 3 -1
2.0192151 5.9491639 0.69159281 3 -1
1.9898392 5.9487567 0.70688778 3 -1
1.9678407 5.9539108 0.69602925 3 -1
1.9408085 5.9603238 0.69613588 3 -1
1.8870523 5.9840865 0.6960147 3 -1
1.8738719 5.9878731 0.70007575 3 -1
1.8537247 5.9969144 0.6905371 3 -1
1.8162133 6.0006986 0.70502567 3 -1
1.7929646 5.9997396 0.71180683 3 -1
1.7565353 6.0061364 0.70368397 3 -1
1.7384846 6.013341 0.70761746 3 -1
1.690686 5.9952936 0.70170885 3 -1
1.6519077 6.004077 0.72020054 3 -1
1.6258788 6.0069737 0.72343153 3 -1
1.5702596 6.0042648 0.73050803 3 -1
1.5220432 6.008182 0.74092537 3 -1
1.4686128 5.998385 0.75109881 3 -1
1.4150572 5.9685998 0.76509184 3 -1
1.3485427 5.9682374 0.75747013 3 -1
1.221355 5.9131646 0.80328 3 -1
1.0441308 5.8024988 0.85824645 3 -1
0.081977606 5.0275264 1.149359 2 -1
0.075642586 5.1403041 1.1175909 2 -1
0.067972898 5.237752 1.1343771 2 -1
0.074609041 5.3414307 1.1079183 2 -1
0.079032183 5.432435 1.0713794 2 -1
0.080325842 5.5275998 1.0841541 2 -1
0.091581821 5.6333437 1.0657266 2 -1
0.081950188 5.723875 1.0527592 2 -1
0.10033083 5.7926598 1.0346422 2 -1
0.081095457 5.8557749 1.0304264 2 -1
0.088950396 5.9513135 1.0370204 2 -1
0.081242561 6.0319157 1.028744 2 -1
0.087687016 6.0887761 1.0186459 2 -1
0.09126544 6.1896586 1.0080323 2 -1
0.09839201 6.2463875 1.0029948 2 -1
0.089413404 6.3159895 0.98300236 2 -1
0.095262527 6.3891759 1.0040789 2 -1
0.090849161 6.4491358 0.98579043 2 -1
0.080560684 6.5155845 0.96908522 2 -1
0.090819836 6.5983024 0.97629607 2 -1
0.10658979 6.6414013 0.97875482 2 -1
0.10544705 6.7177486 0.97828549 2 -1
0.10321331 6.7892218 0.97868228 2 -1
0.092424154 6.8393283 0.97096962 2 -1
0.093833685 6.8678493 0.9543606 2 -1
3.6897149 4.2346325 1.2464541 3 -1
3.6521263 4.0773716 1.2897129 3 -1
3.6578569 3.8947506 1.3477623 3 -1
2.5493164 5.4554653 0.86526477 3 -1
2.4944685 5.5787859 0.81757665 3 -1
2.443445 5.6620765 0.80311108 3 -1
2.3829358 5.6999588 0.78397191 3 -1
2.3429031 5.7470403 0.77028102 3 -1
2.2845426 5.7724853 0.76210773 3 -1
2.2689703 5.8120332 0.74580145 3 -1
2.2305007 5.8308096 0.73543859 3 -1
2.2269213 5.8490067 0.74994242 3 -1
2.1811042 5.8618107 0.72062612 3 -1
2.1507237 5.8836393 0.72535068 3 -1
2.1353064 5.8911109 0.73322332 3 -1
2.0942311 5.9145246 0.72422123 3 -1
2.0593395 5.9279342 0.72522014 3 -1
2.0453458 5.945847 0.71353257 3 -1
2.0200772 5.9570189 0.70958418 3 -1
1.9719026 5.9574137 0.72764146 3 -1
1.9557328 5.9821448 0.71764642 3 -1
1.9398986 5.9897985 0.71404511 3 -1
1.9026717 5.9853129 0.73036003 3 -1
1.865629 5.9785857 0.72622836 3 -1
1.8559258 5.9929023 0.71305025 3 -1
1.8140955 6.0008507 0.72385156 3 -1
1.7809463 6.007822 0.72683448 3 -1
1.7585208 5.9916534 0.7261771 3 -1
1.705215 6.0067954 0.7259562 3 -1
1.6850579 6.0078163 0.73527074 3 -1
1.6404641 5.9852052 0.74045986 3 -1
1.5984337 5.9883623 0.74351281 3 -1
1.5724546 6.0292559 0.7550692 3 -1
1.5294597 5.9889865 0.76478195 3 -1
1.4534048 5.9906363 0.77498257 3 -1
1.4160354 5.9676623 0.79963374 3 -1
1.3306019 5.9449372 0.80276918 3 -1
1.2398958 5.9293785 0.82687902 3 -1
1.0410358 5.7919226 0.8800267 3 -1
0.080047131 5.0338964 1.2373195 2 -1
0.073530436 5.143054 1.1894351 2 -1
0.068251371 5.23454 1.1741009 2 -1
0.090857506 5.3593235 1.1702738 2 -1
0.066079617 5.4420066 1.1580378 2 -1
0.083148479 5.5277972 1.1260724 2 -1
0.073429108 5.623313 1.1200747 2 -1
0.074090719 5.7052584 1.1092877 2 -1
0.075470924 5.8080029 1.0990032 2 -1
0.093106508 5.870779 1.0911325 2 -1
0.088374615 5.9405327 1.0651065 2 -1
0.093250036 5.9995079 1.0648917 2 -1
0.095958471 6.087935 1.073359 2 -1
0.078135252 6.180398 1.0482712 2 -1
0.10344768 6.2447143 1.0604905 2 -1
0.084413528 6.3402143 1.0408894 2 -1
0.087565899 6.3867192 1.0246354 2 -1
0.092429399 6.4553809 1.0573555 2 -1
0.093774796 6.5051475 1.0352759 2 -1
0.10393286 6.6003962 1.0422068 2 -1
0.11988282 6.6499672 1.0206957 2 -1
0.096739531 6.7063136 1.0285072 2 -1
0.10796666 6.7823195 1.0175538 2 -1
0.10742712 6.8316069 1.0332994 2 -1
0.090860367 6.8916392 1.0170785 2 -1
3.6852126 4.2390327 1.3602935 3 -1
3.6562274 4.0741439 1.381189 3 -1
3.6363864 3.8696086 1.4228375 3 -1
2.5600615 5.4438496 0.883201 3 -1
2.5062242 5.5820661 0.85280955 3 -1
2.4326904 5.6434031 0.82203948 3 -1
2.3750799 5.6883221 0.80441213 3 -1
2.3633997 5.7524557 0.78327382 3 -1
2.3118427 5.7752943 0.79519862 3 -1
2.2841079 5.799747 0.76889014 3 -1
2.2404659 5.833652 0.77751899 3 -1
2.220715 5.8315978 0.74704218 3 -1
2.1729541 5.8632712 0.77171659 3 -1
2.1419058 5.8887868 0.75379449 3 -1
2.1095829 5.9005198 0.75608063 3 -1
2.0811927 5.9165483 0.73435152 3 -1
2.0737884 5.9213209 0.73938316 3 -1
2.0347605 5.9430013 0.73195791 3 -1
2.0140135 5.9565129 0.73782182 3 -1
1.9783244 5.9509001 0.7420454 3 -1
1.9644563 5.9630456 0.73635018 3 -1
1.9233453 5.975853 0.73987615 3 -1
1.8895063 5.9882588 0.73516083 3 -1
1.8833946 5.9963012 0.75138462 3 -1
1.8488716 6.0132442 0.73368514 3 -1
1.8391947 5.9955606 0.72778404 3 -1
1.7861791 5.9924765 0.7370894 3 -1
1.7633636 6.0077958 0.74990833 3 -1
1.7407537 5.9923482 0.75549197 3 -1
1.7065413 6.0231056 0.75180179 3 -1
1.6400144 6.0161505 0.77273142 3 -1
1.5919465 6.0090389 0.79662639 3 -1
1.5727457 5.9956369 0.77979374 3 -1
1.5099449 5.991962 0.78337371 3 -1
1.4752884 5.9952493 0.80400306 3 -1
1.4015687 5.9863801 0.81479931 3 -1
1.3461754 5.9657879 0.85154241 3 -1
1.2413957 5.9062066 0.8682425 3 -1
1.0479596 5.7939529 0.90567887 3 -1
0.063784599 5.0343604 1.2838182 2 -1
0.056816101 5.1130977 1.2459435 2 -1
0.084743261 5.2281351 1.2456594 2 -1
0.08090663 5.3500037 1.2288252 2 -1
0.069889069 5.4281368 1.2061906 2 -1
0.076548338 5.5177155 1.2142072 2 -1
0.06707263 5.6292467 1.1636033 2 -1
0.094010592 5.7069998 1.1610723 2 -1
0.092078924 5.8012156 1.1444761 2 -1
0.074125767 5.8807917 1.1353234 2 -1
0.078338861 5.9496551 1.1350384 2 -1
0.08685708 6.0488453 1.1200442 2 -1
0.098865747 6.118175 1.105224 2 -1
0.082297087 6.1621504 1.1109619 2 -1
0.11408019 6.2535062 1.1181402 2 -1
0.076532841 6.3032899 1.101707 2 -1
0.10357451 6.3836317 1.0913653 2 -1
0.08882618 6.4812727 1.0832993 2 -1
0.093021631 6.5246668 1.0684609 2 -1
0.091773272 6.6046391 1.0779512 2 -1
0.11932659 6.6651282 1.0728407 2 -1
0.10497355 6.7196031 1.0780337 2 -1
0.09419632 6.7633853 1.0974287 2 -1
0.1314559 6.8372459 1.0646317 2 -1
0.11151123 6.8886957 1.0843879 2 -1
3.6637783 4.2271566 1.4032264 3 -1
3.6467526 4.0827909 1.4427557 3 -1
3.6485157 3.8727732 1.4912875 3 -1
2.5441072 5.4461074 0.93937254 3 -1
2.4880946 5.5763311 0.87578022 3 -1
2.4415631 5.6423397 0.84664309 3 -1
2.4026825 5.6934314 0.83673388 3 -1
2.3413279 5.7475562 0.80748469 3 -1
2.3257039 5.7741709 0.80394822 3 -1
2.2703648 5.8077068 0.79420137 3 -1
2.2366159 5.8261294 0.79614282 3 -1
2.2219932 5.8454547 0.78195769 3 -1
2.1852643 5.8730946 0.78531325 3 -1
2.1450262 5.8966432 0.76726449 3 -1
2.1086504 5.8873749 0.76739073 3 -1
2.1076703 5.9165702 0.76501703 3 -1
2.0698302 5.9263973 0.75748158 3 -1
2.0179062 5.9372916 0.76757324 3 -1
2.0020509 5.9431629 0.75867319 3 -1
1.9941431 5.9599233 0.76499641 3 -1
1.9769427 5.9710951 0.75794506 3 -1
1.9291407 5.9830976 0.76666528 3 -1
1.9073405 5.9937749 0.75175565 3 -1
1.8864138 5.9924231 0.7571398 3 -1
1.8504472 6.0016441 0.77366799 3 -1
1.828513 6.0082932 0.76265377 3 -1
1.7752907 6.0042691 0.76317632 3 -1
1.7604287 6.0039821 0.77473605 3 -1
1.7208769 6.0057616 0.78518212 3 -1
1.6888433 6.0158882 0.76584268 3 -1
1.6624265 6.0064244 0.79766166 3 -1
1.6186006 6.0207863 0.78421599 3 -1
1.5650107 6.0054555 0.81757343 3 -1
1.5180366 6.0034294 0.81431401 3 -1
1.4679363 5.9871473 0.82655513 3 -1
1.4146235 5.9555769 0.83380288 3 -1
1.3518167 5.9467216 0.85032773 3 -1
1.244669 5.8975477 0.8812629 3 -1
1.0348228 5.7692108 0.96746087 3 -1
0.06891799 5.0129085 1.3537865 2 -1
0.087633371 5.1407514 1.3341241 2 -1
0.064067602 5.2430596 1.3235259 2 -1
0.070950747 5.3341837 1.2931237 2 -1
0.080067396 5.4415312 1.2518325 2 -1
0.077383041 5.5354137 1.2537112 2 -1
0.083925486 5.630084 1.2196693 2 -1
0.088768959 5.7045813 1.20169 2 -1
0.08040452 5.7919149 1.192655 2 -1
0.079642773 5.873281 1.2059833 2 -1
0.072758913 5.9494181 1.1981366 2 -1
0.10951614 6.0360513 1.1727997 2 -1
0.098396301 6.1151552 1.1556774 2 -1
