# .PCD v0.7 - Point Cloud Data file format
VERSION 0.7
FIELDS x y z label
SIZE 4 4 4 4
TYPE F F F U
COUNT 1 1 1 1
WIDTH 1309
HEIGHT 1
VIEWPOINT 0.999984 1.00002 0.0997671 1 0 0 0
POINTS 1309
DATA ascii
2.3774352 0.80292797 0.12225568 1 -1
2.3793287 0.76647913 0.1016427 1 -1
2.3693261 0.72798026 0.14533609 1 -1
2.3574481 0.70441699 0.11422136 1 -1
2.359725 0.66417742 0.12274313 1 -1
2.3376775 0.61589003 0.12410316 1 -1
2.3135328 0.58458793 0.094457567 1 -1
2.3257356 0.55852032 0.10017993 1 -1
2.3019698 0.52610552 0.10147019 1 -1
2.292769 0.470007 0.11924291 1 -1
2.2702632 0.43088454 0.12639272 1 -1
2.2575936 0.41910964 0.1139897 1 -1
2.2627425 0.38523394 0.11606342 1 -1
2.2219362 0.36566573 0.10718971 1 -1
2.1869049 0.32871228 0.099453986 1 -1
2.1722202 0.27897173 0.11109093 1 -1
2.1364262 0.24454594 0.10027345 1 -1
2.1237278 0.20759439 0.11444651 1 -1
2.1116462 0.1965003 0.12456395 1 -1
2.0842485 0.16368955 0.11221033 1 -1
2.0575614 0.13523674 0.11746034 1 -1
2.024266 0.10748249 0.097967416 1 -1
1.9715402 0.085634649 0.11284006 1 -1
1.9243162 0.07720232 0.12114516 1 -1
1.9020209 0.074702621 0.14078003 2 -1
1.854635 0.074234545 0.12661979 1 -1
1.8139899 0.091940999 0.13591251 1 -1
1.7818818 0.087492883 0.16049841 2 -1
1.7349713 0.08260268 0.17052209 2 -1
1.7087045 0.094429493 0.16539389 2 -1
1.6649282 0.10077024 0.16026881 2 -1
1.3815565 1.4038155 0.34368744 3 -1
1.4006233 1.3947514 0.33503747 3 -1
1.4212407 1.3931768 0.34694651 3 -1
1.4360549 1.3679781 0.36335874 3 -1
1.4298866 1.348122 0.32538289 3 -1
1.4415412 1.3455864 0.36913443 3 -1
1.4512924 1.3520987 0.36653298 3 -1
1.4633417 1.3245611 0.34773833 3 -1
1.458955 1.3271449 0.36199903 3 -1
1.484002 1.2954882 0.35434619 3 -1
1.4973121 1.2887956 0.34590992 3 -1
1.5156107 1.2801623 0.36722663 3 -1
1.5205512 1.3021429 0.34373707 3 -1
1.5483618 1.2732942 0.34922779 3 -1
1.5265069 1.2532812 0.34217739 3 -1
1.5406585 1.248127 0.33926395 3 -1
1.555217 1.2370605 0.35253271 3 -1
1.5625205 1.2203224 0.34991938 3 -1
1.5688348 1.2281606 0.33590999 3 -1
1.5848826 1.2197418 0.32326746 3 -1
1.5960255 1.1943579 0.32819784 3 -1
1.6018651 1.1867263 0.33160588 3 -1
1.6275085 1.1948986 0.34095111 3 -1
1.64992 1.1593871 0.31285089 3 -1
1.6496516 1.1554168 0.31652248 3 -1
1.6869433 1.1368837 0.33127666 3 -1
1.7068398 1.1327798 0.3332004 3 -1
1.7077129 1.1233213 0.32481921 3 -1
1.7352786 1.1116178 0.30685014 3 -1
1.7626537 1.1000386 0.28805566 3 -1
1.8013829 1.0833789 0.28688818 3 -1
1.8320751 1.0669672 0.30328369 3 -1
1.8701606 1.0408021 0.26189655 3 -1
1.9568112 1.0243201 0.27185094 3 -1
2.0622354 0.98999774 0.23131111 3 -1
2.5036287 0.95514637 0.111114 1 -1
2.5055571 0.90830791 0.11663055 1 -1
2.4896073 0.8754366 0.10684595 1 -1
2.5126805 0.82213485 0.12867993 1 -1
2.5148044 0.78673184 0.099344045 1 -1
2.4880781 0.75951016 0.1332871 1 -1
2.4794865 0.70780432 0.11334172 1 -1
2.4624047 0.6560899 0.12132883 1 -1
2.4450183 0.62410593 0.12313992 1 -1
2.4434144 0.59401107 0.11708638 1 -1
2.4186621 0.55401981 0.10403684 1 -1
2.4187102 0.4971441 0.12687662 1 -1
2.4059877 0.48020852 0.11260653 1 -1
2.3722558 0.43450516 0.099312693 1 -1
2.3779855 0.41368639 0.11709699 1 -1
2.3593264 0.36416131 0.10231715 1 -1
2.3298616 0.33651662 0.11492309 1 -1
2.3113098 0.27023405 0.088824391 1 -1
2.2877831 0.2682234 0.10946798 1 -1
2.2612724 0.22541803 0.12057197 1 -1
2.2439694 0.18836737 0.12606081 1 -1
2.2196569 0.17357594 0.1092779 1 -1
2.1892817 0.13841802 0.11154339 1 -1
2.155045 0.11766344 0.12088457 1 -1
2.1194782 0.066209316 0.11131509 1 -1
2.0545263 0.075953305 0.13901469 1 -1
2.0107298 0.11127424 0.15379116 1 -1
1.9565289 0.0801422 0.14312378 2 -1
1.8843696 0.086222947 0.15343845 2 -1
1.8429904 0.072321415 0.14364481 2 -1
1.7931442 0.092169642 0.19796327 2 -1
1.7687572 0.090717018 0.16365436 2 -1
1.7195787 0.066378415 0.17066646 2 -1
1.7000132 0.098381996 0.18592316 2 -1
1.6584542 0.10455775 0.19918889 2 -1
1.3996339 1.4137437 0.35976401 3 -1
1.4105623 1.4069749 0.35300183 3 -1
1.3913797 1.3812891 0.36235493 3 -1
1.4467547 1.3618839 0.36716142 3 -1
1.4420047 1.3584828 0.36655554 3 -1
1.4401214 1.3375982 0.36047113 3 -1
1.4439898 1.3316336 0.34618211 3 -1
1.4823627 1.3465512 0.37190628 3 -1
1.4836942 1.3205976 0.37068117 3 -1
1.4729497 1.3033087 0.36996365 3 -1
1.5114751 1.3050455 0.37651899 3 -1
1.4924091 1.3003669 0.34351087 3 -1
1.5096297 1.2850612 0.35503596 3 -1
1.5038011 1.2601216 0.34026396 3 -1
1.5301366 1.2499297 0.34311292 3 -1
1.5377638 1.2497138 0.36536509 3 -1
1.5590429 1.2395896 0.35784048 3 -1
1.5695058 1.2557137 0.36019713 3 -1
1.5794283 1.2215788 0.34968883 3 -1
1.5743885 1.2070794 0.35166124 3 -1
1.5813894 1.1932318 0.35076022 3 -1
1.6226525 1.1885545 0.35756892 3 -1
1.621022 1.1759081 0.36225653 3 -1
1.6622314 1.1428213 0.35937405 3 -1
1.6528597 1.1562617 0.35028389 3 -1
1.6738865 1.1348784 0.34714791 3 -1
1.687042 1.128692 0.35988274 3 -1
1.7228162 1.13756 0.3330988 3 -1
1.7639363 1.1288588 0.31904012 3 -1
1.7687955 1.0865718 0.34117272 3 -1
1.7970033 1.058253 0.31377259 3 -1
1.8273134 1.0570223 0.328363 3 -1
1.8924284 1.0458286 0.2937144 3 -1
1.9464729 1.0302119 0.28475934 3 -1
2.0515807 0.98907882 0.23705447 3 -1
2.6398087 0.95314705 0.1236954 1 -1
2.6372681 0.91328269 0.11542505 1 -1
2.6146474 0.87576759 0.1394093 1 -1
2.6188374 0.83307993 0.12543944 1 -1
2.6049924 0.77598274 0.11739007 1 -1
2.6150694 0.73409045 0.11151069 1 -1
2.5914855 0.69468915 0.11487745 1 -1
2.5867674 0.66236091 0.10753012 1 -1
2.5572519 0.59457183 0.1510931 1 -1
2.5695662 0.54714775 0.13178158 1 -1
2.5638218 0.52044225 0.11838534 1 -1
2.5496178 0.47317541 0.1177114 1 -1
2.5089078 0.41996568 0.1155853 1 -1
2.5058739 0.39298058 0.1219122 1 -1
2.4844623 0.32759988 0.10977203 1 -1
2.453681 0.30303019 0.1134076 1 -1
2.4316225 0.25242299 0.11842212 1 -1
2.4036908 0.23231387 0.11985371 1 -1
2.3870177 0.19439465 0.11788899 1 -1
2.366518 0.14991373 0.10265657 1 -1
2.3388124 0.11502069 0.12783739 1 -1
2.3099093 0.072476208 0.12421089 1 -1
2.2449627 0.078530014 0.10716033 1 -1
2.1823339 0.076090097 0.15690687 2 -1
2.1004441 0.081862867 0.14957207 2 -1
2.0473046 0.08053422 0.14965308 2 -1
2.0048547 0.076702654 0.18703529 2 -1
1.9461622 0.089311063 0.18590227 2 -1
1.9030266 0.084027588 0.20773098 2 -1
1.8363175 0.090734482 0.20239338 2 -1
1.8182242 0.080345035 0.20739347 2 -1
1.7723284 0.095389366 0.18853363 2 -1
1.7459811 0.088351011 0.21877089 2 -1
1.6893134 0.091183305 0.21548975 2 -1
1.671977 0.090286553 0.21496391 2 -1
1.3893855 1.4093652 0.35505044 3 -1
1.4145985 1.4032837 0.35156173 3 -1
1.4080472 1.4002701 0.36702603 3 -1
1.4273736 1.3836468 0.37036431 3 -1
1.4163996 1.3600655 0.37723592 3 -1
1.4444399 1.3620532 0.36797863 3 -1
1.4637406 1.3455189 0.36345959 3 -1
1.4798981 1.316666 0.36423662 3 -1
1.4817228 1.3140795 0.38215789 3 -1
1.498534 1.3078477 0.37849653 3 -1
1.5027876 1.2993947 0.3758938 3 -1
1.5128766 1.2777417 0.35327411 3 -1
1.5104446 1.288588 0.37323669 3 -1
1.5322096 1.2576699 0.37675327 3 -1
1.5321815 1.2613554 0.36611918 3 -1
1.5407903 1.2462761 0.34943989 3 -1
1.5486677 1.228297 0.37868679 3 -1
1.5592346 1.2348721 0.35552555 3 -1
1.5567493 1.2231302 0.35964134 3 -1
1.5662804 1.1927651 0.37249434 3 -1
1.5956645 1.2237705 0.38538691 3 -1
1.629087 1.1917583 0.36503288 3 -1
1.6231558 1.1730701 0.35885897 3 -1
1.6467805 1.1612899 0.35695156 3 -1
1.6716006 1.1735418 0.36637855 3 -1
1.6777573 1.1492958 0.33497846 3 -1
1.6951647 1.1114154 0.34261602 3 -1
1.7231369 1.1179048 0.34254524 3 -1
1.7412744 1.1077552 0.34950006 3 -1
1.7816584 1.1082659 0.34469783 3 -1
1.7967141 1.0808979 0.32967705 3 -1
1.8339651 1.0656805 0.32812926 3 -1
1.8729105 1.0310225 0.30802542 3 -1
1.9371431 1.02101 0.3086589 3 -1
2.0476234 0.99593008 0.27807266 3 -1
2.7773821 0.9365468 0.11625846 1 -1
2.7776332 0.91528404 0.12191147 1 -1
2.7614317 0.84779084 0.1220485 1 -1
2.7815661 0.79133368 0.1267336 1 -1
2.7651281 0.74717116 0.13233262 1 -1
2.7407746 0.68760598 0.11164521 1 -1
2.7419572 0.66972697 0.11314765 1 -1
2.7284799 0.62252343 0.12819645 1 -1
2.7066379 0.53738165 0.11905006 1 -1
2.6966558 0.51864147 0.1076867 1 -1
2.6937027 0.45488024 0.12183091 1 -1
2.6595764 0.41908294 0.1280763 1 -1
2.6492474 0.36997426 0.12010074 1 -1
2.6501842 0.33643878 0.13645813 1 -1
2.6134405 0.28583819 0.1165151 1 -1
2.5981007 0.22412431 0.12069568 1 -1
2.5540428 0.19992048 0.11045462 1 -1
2.5475373 0.17316657 0.12306979 1 -1
2.502645 0.11138707 0.13455242 1 -1
2.4867702 0.084792078 0.12346679 1 -1
2.385076 0.07900238 0.14635161 1 -1
2.32075 0.084117591 0.13840199 1 -1
2.2306657 0.081233859 0.1401988 1 -1
2.1567888 0.065597653 0.17492452 2 -1
2.1177406 0.09381628 0.17139918 2 -1
2.0587988 0.092493355 0.17111295 2 -1
2.0019188 0.07856214 0.19614676 2 -1
1.9325564 0.074042201 0.20301512 2 -1
1.9078624 0.095273614 0.23820457 2 -1
1.8576636 0.091136217 0.21959978 2 -1
1.8375494 0.092679322 0.23305622 2 -1
1.7721806 0.082668245 0.23550934 2 -1
1.7303083 0.10717463 0.22831404 2 -1
1.7160618 0.09636277 0.25096673 2 -1
1.6585586 0.095091224 0.26384163 2 -1
1.4058769 1.4217521 0.38896999 3 -1
1.4197 1.4146589 0.37539572 3 -1
1.4220052 1.3763039 0.37022132 3 -1
1.4260298 1.3854898 0.38896698 3 -1
1.4390675 1.3678176 0.39600837 3 -1
1.4519243 1.3554552 0.38506192 3 -1
1.4645412 1.3357236 0.37876627 3 -1
1.4628637 1.3135804 0.37939459 3 -1
1.4607476 1.3137976 0.38056228 3 -1
1.4846691 1.3403499 0.39297229 3 -1
1.5016111 1.3249772 0.40239814 3 -1
1.5116465 1.3049692 0.38276291 3 -1
1.5126836 1.2906986 0.38359964 3 -1
1.5248035 1.2703543 0.38988945 3 -1
1.5302222 1.2696346 0.38597021 3 -1
1.5424988 1.2554222 0.37279356 3 -1
1.5339669 1.2425134 0.35802621 3 -1
1.5523797 1.2296921 0.37795442 3 -1
1.5605693 1.2170019 0.37060025 3 -1
1.5860145 1.2174251 0.36018923 3 -1
1.586019 1.2055074 0.36451384 3 -1
1.5956402 1.1745493 0.37050074 3 -1
1.6249189 1.1628796 0.3538048 3 -1
1.6530807 1.1796474 0.36491859 3 -1
1.666291 1.1518865 0.36621413 3 -1
1.6790776 1.1576242 0.38350132 3 -1
1.6862192 1.1310705 0.35362625 3 -1
1.7083731 1.1273105 0.36707509 3 -1
1.7453818 1.0923443 0.3530533 3 -1
1.77631 1.1109574 0.36004922 3 -1
1.7870836 1.0760677 0.33380103 3 -1
1.8468268 1.0585985 0.33382761 3 -1
1.8866447 1.0443355 0.32314205 3 -1
1.9346566 1.0355058 0.31941104 3 -1
2.0505581 0.99713945 0.30432728 3 -1
2.952734 0.93590611 0.13522997 1 -1
2.9567389 0.89388126 0.12121806 1 -1
2.9488649 0.82392585 0.12589848 1 -1
2.9327395 0.77347839 0.13193232 1 -1
2.9235735 0.73329842 0.10140178 1 -1
2.9197087 0.66349685 0.11692679 1 -1
2.890245 0.61050975 0.10867295 1 -1
2.8930054 0.54974723 0.12289554 1 -1
2.8877277 0.49478441 0.12406807 1 -1
2.8666866 0.46487224 0.13027543 1 -1
2.8689461 0.41443431 0.11315291 1 -1
2.8234057 0.33072561 0.11151302 1 -1
2.8084836 0.30531049 0.11107089 1 -1
2.7968874 0.24505728 0.12785679 1 -1
2.7744484 0.20914173 0.11167502 1 -1
2.7411876 0.12876481 0.12777418 1 -1
2.6979959 0.11943465 0.12549809 1 -1
2.664696 0.076307058 0.12904441 1 -1
2.5535862 0.045368254 0.14068061 1 -1
2.4864366 0.066051722 0.14660171 1 -1
2.4013081 0.098185658 0.17075834 2 -1
2.3186011 0.0729509 0.17827532 2 -1
2.2428451 0.10980958 0.18916023 2 -1
2.1740184 0.087476254 0.20588821 2 -1
2.122788 0.081270516 0.21028614 2 -1
2.0589998 0.085942805 0.20110294 2 -1
1.9896622 0.083938837 0.21694037 2 -1
1.9429686 0.080360651 0.22417423 2 -1
1.8885937 0.075533807 0.23963919 2 -1
1.8613671 0.078500211 0.24610102 2 -1
1.8118532 0.098104179 0.24512467 2 -1
1.7772374 0.088043988 0.25109088 2 -1
1.7367499 0.10183018 0.25139055 2 -1
1.6922863 0.072395861 0.25117189 2 -1
1.6553223 0.10131311 0.26244605 2 -1
1.4052534 1.4210315 0.38532552 3 -1
1.408402 1.4004939 0.38330561 3 -1
1.4101384 1.3902103 0.38264126 3 -1
1.4371409 1.3785844 0.3908574 3 -1
1.4291111 1.35629 0.3831597 3 -1
1.4341252 1.3691072 0.39407668 3 -1
1.4615332 1.3333318 0.40430194 3 -1
1.4555991 1.3377688 0.40598711 3 -1
1.4700239 1.3014634 0.37110209 3 -1
1.4796704 1.3190005 0.39453277 3 -1
1.4911525 1.3098071 0.40114939 3 -1
1.514827 1.297935 0.39400542 3 -1
1.5098 1.2708886 0.39634821 3 -1
1.5252779 1.2713575 0.3786436 3 -1
1.5233279 1.2619269 0.38590109 3 -1
1.5464771 1.2407421 0.38300472 3 -1
1.5549328 1.2435651 0.40054536 3 -1
1.5691879 1.2282684 0.37192127 3 -1
1.5647502 1.2067997 0.40013102 3 -1
1.5739875 1.2149113 0.38177437 3 -1
1.6014254 1.1986345 0.37343511 3 -1
1.5957103 1.1906164 0.37717327 3 -1
1.6175876 1.1605828 0.38495702 3 -1
1.6379027 1.1690665 0.37159115 3 -1
1.6557734 1.139137 0.39241004 3 -1
1.6772311 1.1522269 0.36949629 3 -1
1.6839254 1.1332573 0.36286291 3 -1
1.7041647 1.1192502 0.3798106 3 -1
1.7411416 1.1084366 0.36119512 3 -1
1.7458706 1.089118 0.36989778 3 -1
1.817932 1.0749707 0.3569825 3 -1
1.8380589 1.0581155 0.35411465 3 -1
1.8993011 1.0696906 0.3417449 3 -1
1.9342759 1.0313923 0.3295728 3 -1
2.0398216 0.99900222 0.29442519 3 -1
3.1823163 0.91676247 0.11291069 1 -1
3.173811 0.89002526 0.11406209 1 -1
3.1703215 0.81315494 0.098299526 1 -1
3.1676078 0.7512536 0.14279079 1 -1
3.1554956 0.67700887 0.10660163 1 -1
3.1376677 0.63545811 0.13064426 1 -1
3.1281261 0.57652771 0.13025019 1 -1
3.1041434 0.50914967 0.10723516 1 -1
3.0832155 0.45398343 0.13257569 1 -1
3.0630326 0.38443536 0.10084543 1 -1
3.0513649 0.34041739 0.12389332 1 -1
3.0395653 0.27048492 0.12498476 1 -1
3.0163922 0.21406859 0.12584573 1 -1
2.9851379 0.15742576 0.10889003 1 -1
2.9732759 0.11097324 0.12568402 1 -1
2.8999081 0.058796942 0.12999511 1 -1
2.7721405 0.059334278 0.14269391 1 -1
2.6587121 0.068322062 0.15225399 1 -1
2.5823979 0.087079406 0.17366341 2 -1
2.479178 0.069409251 0.19845486 2 -1
2.3906426 0.053653777 0.19794384 2 -1
2.3021319 0.067153335 0.22036058 2 -1
2.2460237 0.081247866 0.22311169 2 -1
2.1726556 0.098808169 0.23224416 2 -1
2.1122942 0.0867275 0.2348001 2 -1
2.0528655 0.076279581 0.24700683 2 -1
2.0023937 0.088138282 0.27183798 2 -1
1.9471729 0.092638731 0.26195341 2 -1
1.8989774 0.089898646 0.27091789 2 -1
1.8728194 0.095223904 0.2646327 2 -1
1.8154294 0.061878264 0.27658686 2 -1
1.7671404 0.083169222 0.27988786 2 -1
1.728915 0.083915889 0.28600428 2 -1
1.6871514 0.080998003 0.28341949 2 -1
1.6740766 0.087669671 0.29702961 2 -1
1.4052025 1.4207529 0.41544956 3 -1
1.4020151 1.4056783 0.39139047 3 -1
1.4130169 1.4031799 0.38848436 3 -1
1.4326168 1.3711646 0.40874144 3 -1
1.4410961 1.3743458 0.40730256 3 -1
1.4241749 1.351012 0.41372633 3 -1
1.4564016 1.3460436 0.39941218 3 -1
1.4810406 1.3262155 0.39553678 3 -1
1.4636018 1.3043675 0.4029423 3 -1
1.4961492 1.3186576 0.40955049 3 -1
1.4792099 1.3036721 0.39681709 3 -1
1.4955274 1.2989054 0.40671116 3 -1
1.5035763 1.2727137 0.41541523 3 -1
1.5090214 1.2702446 0.41895539 3 -1
1.5293351 1.274755 0.4036167 3 -1
1.5597082 1.2424102 0.39039454 3 -1
1.5430009 1.2348373 0.39268062 3 -1
1.5613472 1.2277043 0.40577254 3 -1
1.564157 1.2134802 0.39165905 3 -1
1.5899782 1.2062337 0.40081489 3 -1
1.5903401 1.2155948 0.40133989 3 -1
1.6181445 1.1931168 0.40300587 3 -1
1.6194313 1.1742222 0.3945477 3 -1
1.630841 1.1782007 0.39346108 3 -1
1.672876 1.1595523 0.39726391 3 -1
1.6693225 1.1484573 0.39125806 3 -1
1.6847692 1.125262 0.40102708 3 -1
1.710438 1.1142026 0.37086657 3 -1
1.7354653 1.1085278 0.38318342 3 -1
1.7844272 1.0743098 0.36880881 3 -1
1.8022145 1.0643815 0.3747389 3 -1
1.8358245 1.0499637 0.36404261 3 -1
1.9019537 1.026284 0.37021178 3 -1
1.9597986 1.0165313 0.34482503 3 -1
2.0489185 0.99896806 0.3130877 3 -1
3.4480767 0.93282998 0.1187163 1 -1
3.4400282 0.86416554 0.12942144 1 -1
3.4487872 0.79343748 0.11670791 1 -1
3.4218898 0.72207248 0.13109612 1 -1
3.4294672 0.64064074 0.12178557 1 -1
3.4106584 0.56571174 0.13354307 1 -1
3.393621 0.50400114 0.11215322 1 -1
3.379231 0.43819016 0.11975649 1 -1
3.3809199 0.3598119 0.12049997 1 -1
3.3524437 0.30487901 0.11923984 1 -1
3.2940369 0.24521863 0.11578494 1 -1
3.2820997 0.15386289 0.12195033 1 -1
3.2637758 0.10673648 0.1332505 1 -1
3.1996965 0.063552618 0.14317697 1 -1
3.046227 0.068733096 0.1477738 1 -1
2.916445 0.060500741 0.15642235 1 -1
2.7751136 0.081763566 0.19371665 2 -1
2.679481 0.097070873 0.2087203 2 -1
2.5590415 0.072084069 0.20535985 2 -1
2.4670196 0.070918739 0.22920454 2 -1
2.383976 0.088001966 0.24418363 2 -1
2.3257174 0.10194635 0.23476782 2 -1
2.241385 0.076337874 0.25093189 2 -1
2.1674099 0.08934617 0.28167737 2 -1
2.1287227 0.088262737 0.26386756 2 -1
2.0570517 0.08442241 0.27803254 2 -1
2.0134003 0.07054466 0.2643984 2 -1
1.9479339 0.10143256 0.27114308 2 -1
1.9004853 0.084730983 0.28262198 2 -1
1.8456767 0.093842626 0.29812175 2 -1
1.7986112 0.089999437 0.3101486 2 -1
1.7484131 0.095013976 0.29430023 2 -1
1.7287629 0.082434475 0.31181765 2 -1
1.7057725 0.097264528 0.31280053 2 -1
1.6705282 0.1174081 0.31885588 2 -1
1.3973385 1.4395022 0.40748054 3 -1
1.4125937 1.4125155 0.42130318 3 -1
1.4168127 1.384737 0.40907344 3 -1
1.4333887 1.3638513 0.42424542 3 -1
1.4341025 1.3656087 0.42208767 3 -1
1.4276991 1.3596545 0.39282924 3 -1
1.4690807 1.3241554 0.40581679 3 -1
1.4594271 1.3244081 0.42535871 3 -1
1.4529643 1.3221873 0.38880315 3 -1
1.4888909 1.3122082 0.39126715 3 -1
1.4639864 1.2983093 0.42007792 3 -1
1.4857655 1.2928847 0.41115418 3 -1
1.4932841 1.2818253 0.42049819 3 -1
1.5133208 1.2615101 0.4088518 3 -1
1.5145793 1.2654177 0.41077703 3 -1
1.5376318 1.248417 0.41712478 3 -1
1.5476042 1.2311633 0.40837294 3 -1
1.5610607 1.2402831 0.41026551 3 -1
1.5851374 1.2271942 0.40739453 3 -1
1.5720735 1.2259223 0.41039824 3 -1
1.5958228 1.1944382 0.41834125 3 -1
1.617718 1.1928648 0.40066504 3 -1
1.625803 1.1773349 0.40161085 3 -1
1.6463468 1.16853 0.4058198 3 -1
1.6293708 1.1650925 0.40186888 3 -1
1.6644319 1.1431243 0.40613618 3 -1
1.716454 1.1176789 0.39683843 3 -1
1.7175325 1.1205258 0.40046448 3 -1
1.7412782 1.0969422 0.39686167 3 -1
1.7727079 1.0998937 0.37623426 3 -1
1.7980497 1.0618644 0.39436767 3 -1
1.8392859 1.0683832 0.37824318 3 -1
1.9059658 1.024477 0.38618964 3 -1
1.9459772 1.0119479 0.38027433 3 -1
2.0448871 0.99788487 0.344365 3 -1
3.8081174 0.90590125 0.13556245 1 -1
3.7963009 0.84085929 0.12687549 1 -1
3.7881927 0.74324954 0.12536526 1 -1
3.795249 0.67132926 0.12122887 1 -1
3.7621779 0.59622443 0.12698042 1 -1
3.7527232 0.50814915 0.13197249 1 -1
3.7437725 0.42204958 0.14536598 1 -1
3.7129931 0.35697931 0.12211886 1 -1
3.6981931 0.278198 0.14019409 1 -1
3.6923509 0.19553208 0.12032172 1 -1
3.6563005 0.13551623 0.11536172 1 -1
3.6077662 0.037212372 0.11751992 1 -1
3.3825006 0.062590659 0.128012 1 -1
3.2052259 0.071981907 0.1671091 1 -1
3.0441759 0.06431222 0.18843243 2 -1
2.898278 0.063745499 0.22219715 2 -1
2.8044906 0.052335203 0.22438732 2 -1
2.6784434 0.05839318 0.2393721 2 -1
2.5745468 0.073316216 0.24867156 2 -1
2.4719548 0.063583255 0.26311308 2 -1
2.3871398 0.067031443 0.27578658 2 -1
2.3177118 0.084676564 0.27405199 2 -1
2.2434559 0.082041025 0.27372915 2 -1
2.1609788 0.08096844 0.29841134 2 -1
2.1115491 0.065182805 0.2970131 2 -1
2.050355 0.080410898 0.32238084 2 -1
2.0066004 0.072894812 0.31865236 2 -1
1.9713407 0.07979399 0.30077243 2 -1
1.9084921 0.073437154 0.32057589 2 -1
1.8476791 0.079076648 0.31756639 2 -1
1.7993487 0.098531365 0.34693572 2 -1
1.7800027 0.062929153 0.29621118 2 -1
1.7498064 0.10215336 0.33484319 2 -1
1.7003796 0.092251062 0.32813758 2 -1
1.6747773 0.098163903 0.33085644 2 -1
1.3778925 1.3992813 0.42175069 3 -1
1.409577 1.4215708 0.43834594 3 -1
1.4292519 1.4056952 0.4157359 3 -1
1.4431971 1.3706639 0.42448345 3 -1
1.4304329 1.3741038 0.4197894 3 -1
1.4447815 1.3451803 0.42594585 3 -1
1.4478295 1.3389453 0.42577928 3 -1
1.4544685 1.3190001 0.43806726 3 -1
1.4750686 1.3209076 0.41577852 3 -1
1.469327 1.2944736 0.42116192 3 -1
1.4809115 1.2913828 0.41619861 3 -1
1.5070801 1.3057585 0.42990106 3 -1
1.5218611 1.2723155 0.42928937 3 -1
1.5221132 1.272645 0.42942977 3 -1
1.546293 1.2683995 0.41955009 3 -1
1.5381944 1.2527219 0.40058124 3 -1
1.548182 1.2351224 0.4285152 3 -1
1.5812002 1.2366977 0.41427597 3 -1
1.5758107 1.2228861 0.41132352 3 -1
1.5748761 1.2095473 0.42858219 3 -1
1.605325 1.2013141 0.41695303 3 -1
1.5999887 1.2166482 0.41888738 3 -1
1.6184599 1.172322 0.40836316 3 -1
1.6492133 1.1554358 0.42457554 3 -1
1.6524885 1.1570842 0.40302706 3 -1
1.6805258 1.159245 0.41430953 3 -1
1.694417 1.1387821 0.4125706 3 -1
1.7219665 1.116513 0.41741028 3 -1
1.7414837 1.1142008 0.39647329 3 -1
1.7657483 1.0895424 0.39911574 3 -1
1.7821054 1.0824783 0.40588683 3 -1
1.8421111 1.0560517 0.39818051 3 -1
1.8914723 1.0569253 0.39410764 3 -1
1.9539734 1.0174568 0.38632002 3 -1
2.0570364 0.98506016 0.38142392 3 -1
4.2884364 0.90025699 0.13087842 1 -1
4.2978559 0.80851185 0.13644019 1 -1
4.2868223 0.70431018 0.14268255 1 -1
4.2697873 0.61957288 0.11825687 1 -1
4.2429008 0.49975783 0.12305927 1 -1
4.2546129 0.4287551 0.12892655 1 -1
4.2105694 0.31749463 0.1292865 1 -1
4.1928878 0.23355991 0.13650888 1 -1
4.1801701 0.13524711 0.13107786 1 -1
4.1355901 0.05192405 0.11875629 1 -1
3.8542199 0.054757655 0.17489213 1 -1
3.6113391 0.050409675 0.20330313 2 -1
3.379015 0.06347084 0.19387168 2 -1
3.2145057 0.059697032 0.23099005 2 -1
3.0352564 0.06719017 0.25275785 2 -1
2.9010839 0.078402817 0.2482588 2 -1
2.7675977 0.077996075 0.25697964 2 -1
2.6813519 0.080958128 0.28103402 2 -1
2.5643003 0.068882287 0.29115832 2 -1
2.4708772 0.095496297 0.30533087 2 -1
2.4119835 0.089176357 0.29366893 2 -1
2.3140209 0.079670072 0.29589128 2 -1
2.2367096 0.064777792 0.31354088 2 -1
2.173584 0.074116886 0.30829191 2 -1
2.137538 0.078231871 0.32122171 2 -1
2.0541942 0.069162786 0.32878625 2 -1
2.0025339 0.076210201 0.32338136 2 -1
1.9456478 0.082095146 0.34412745 2 -1
1.8860362 0.078965545 0.34615156 2 -1
1.8641148 0.084403336 0.34965929 2 -1
1.807204 0.089522779 0.35728118 2 -1
1.7878504 0.082372308 0.35855547 2 -1
1.7268581 0.09736532 0.35778186 2 -1
1.6941087 0.095263541 0.34939772 2 -1
1.6628432 0.1047219 0.35465479 2 -1
1.3937447 1.4127487 0.43424925 3 -1
1.4018965 1.4155192 0.43676391 3 -1
1.4194198 1.3879268 0.4283638 3 -1
1.4284003 1.3561196 0.42189097 3 -1
1.4416184 1.3673558 0.44077265 3 -1
1.439734 1.3513241 0.4352729 3 -1
1.4528736 1.3433667 0.4213753 3 -1
1.4674686 1.3352978 0.4070943 3 -1
1.4629407 1.319671 0.41437578 3 -1
1.4923112 1.3113878 0.42729113 3 -1
1.490252 1.2965779 0.4457792 3 -1
1.5067625 1.3048661 0.43342835 3 -1
1.5322967 1.2807196 0.42704684 3 -1
1.5058403 1.2641351 0.41557845 3 -1
1.5191462 1.2617178 0.42316669 3 -1
1.5375886 1.250708 0.42920744 3 -1
1.5491143 1.2553308 0.43053058 3 -1
1.5486991 1.2318776 0.42278126 3 -1
1.5853568 1.2147387 0.41363218 3 -1
1.5865843 1.2027429 0.43904635 3 -1
1.5921137 1.1965909 0.44977063 3 -1
1.6154637 1.1832895 0.43109033 3 -1
1.6223364 1.178494 0.41454503 3 -1
1.6376207 1.1857257 0.42477483 3 -1
1.6459274 1.1699213 0.44613436 3 -1
1.6753571 1.1644404 0.4260442 3 -1
1.6635237 1.1462164 0.41335845 3 -1
1.7247627 1.1223426 0.43226314 3 -1
1.7581069 1.103776 0.40760511 3 -1
1.7586839 1.0848509 0.42037579 3 -1
1.8059185 1.0851606 0.41889897 3 -1
1.8335483 1.0634937 0.42478061 3 -1
1.8679225 1.034575 0.39585835 3 -1
1.9585524 1.0250213 0.4217954 3 -1
2.0592344 1.0120646 0.38004971 3 -1
5.007658 0.87331641 0.13282517 1 -1
4.9858027 0.73587728 0.14242634 1 -1
4.9684854 0.63796031 0.16341165 1 -1
4.9600158 0.5385946 0.13574904 1 -1
4.9722285 0.40583026 0.16177541 1 -1
4.9576015 0.29992461 0.15771383 1 -1
4.8915362 0.17314404 0.14037415 1 -1
4.8804684 0.062100232 0.14351836 1 -1
4.5585518 0.043479741 0.16567984 1 -1
4.1745338 0.022477269 0.21272844 2 -1
3.8848929 0.04977119 0.22724512 2 -1
3.6277127 0.047635496 0.23243985 2 -1
3.3969989 0.064648449 0.26846403 2 -1
3.216311 0.066181242 0.26435852 2 -1
3.0481827 0.072459996 0.30842447 2 -1
2.9029031 0.048809886 0.29752615 2 -1
2.7943788 0.05681622 0.30438697 2 -1
2.691721 0.080550075 0.31897295 2 -1
2.5543466 0.080198109 0.3215653 2 -1
2.4903336 0.0854128 0.34093919 2 -1
2.400208 0.064992011 0.3197192 2 -1
2.3117044 0.074480593 0.34393477 2 -1
2.2477527 0.083984733 0.34341633 2 -1
2.1777282 0.085550666 0.3339653 2 -1
2.1128857 0.071627975 0.35263366 2 -1
2.0549607 0.08845073 0.3787297 2 -1
2.0130455 0.087771475 0.35715759 2 -1
1.9602931 0.089475095 0.36993784 2 -1
1.8984239 0.098210871 0.3712177 2 -1
1.8363703 0.085828245 0.36966541 2 -1
1.807636 0.077129066 0.36020231 2 -1
1.7506461 0.082455218 0.37114283 2 -1
1.7205117 0.11404186 0.37954995 2 -1
1.7009442 0.072941542 0.38324353 2 -1
1.6698358 0.10741961 0.38347447 2 -1
1.417003 1.3951728 0.44193521 3 -1
1.401445 1.4113238 0.42362916 3 -1
1.4198607 1.4013031 0.44819605 3 -1
1.4149556 1.38494 0.40958202 3 -1
1.4195819 1.3457482 0.4506382 3 -1
1.4297428 1.3556643 0.43910116 3 -1
1.4714143 1.3533509 0.43999121 3 -1
1.4643701 1.3334911 0.44561327 3 -1
1.472959 1.3012899 0.44455051 3 -1
1.466635 1.2953172 0.43385538 3 -1
1.4941454 1.3206398 0.44468287 3 -1
1.4948118 1.2805634 0.44582576 3 -1
1.4993968 1.2805837 0.45263469 3 -1
1.4986513 1.2734996 0.43144009 3 -1
1.5105269 1.2586534 0.45555118 3 -1
1.5114508 1.2430838 0.44425273 3 -1
1.5455861 1.2308117 0.43158486 3 -1
1.5651536 1.2347777 0.44193494 3 -1
1.5676327 1.2252384 0.43991104 3 -1
1.5876067 1.2110331 0.45148802 3 -1
1.5980798 1.190794 0.43990639 3 -1
1.6192434 1.2041147 0.4271245 3 -1
1.6255343 1.1897361 0.43640128 3 -1
1.6369927 1.1702632 0.44010153 3 -1
1.6699899 1.145418 0.44452083 3 -1
1.6770301 1.1501899 0.4380917 3 -1
1.6865473 1.1215082 0.42550844 3 -1
1.7068392 1.1293745 0.43315226 3 -1
1.7144203 1.1076847 0.43540922 3 -1
1.767251 1.0807713 0.40710387 3 -1
1.7855866 1.1010195 0.42119387 3 -1
1.8483233 1.0561545 0.44490415 3 -1
1.8986828 1.0402044 0.41104957 3 -1
1.9513806 1.0253347 0.4275932 3 -1
2.0501318 1.0093634 0.40327147 3 -1
5.3107014 0.86843097 0.2113595 1 -1
6.0985975 0.68052554 0.16810998 1 -1
6.0781813 0.52716637 0.16818249 1 -1
6.0795298 0.38277256 0.13858899 1 -1
6.0483208 0.24679613 0.14032945 1 -1
6.0322618 0.083281159 0.1401329 1 -1
5.6281261 0.018790305 0.18191135 1 -1
5.0250397 0.027298331 0.23250848 2 -1
4.5495071 0.048823476 0.24913111 2 -1
4.1558108 0.050575852 0.25880438 2 -1
3.8742681 0.039434016 0.27688015 2 -1
3.6074705 0.048797488 0.28525224 2 -1
3.3855495 0.067370415 0.30883509 2 -1
3.2127161 0.06516546 0.32174081 2 -1
3.0480709 0.076157153 0.33865976 2 -1
2.9068217 0.067603827 0.35446414 2 -1
2.7652047 0.062742233 0.3558895 2 -1
2.67589 0.078552365 0.37328899 2 -1
2.5483396 0.070759475 0.35781649 2 -1
2.4829793 0.085810304 0.37321454 2 -1
2.4024286 0.067408562 0.37892914 2 -1
2.3163838 0.08017838 0.38346803 2 -1
2.2408657 0.078680575 0.35533431 2 -1
2.1562729 0.055519521 0.40273115 2 -1
2.1046729 0.089264691 0.39214832 2 -1
2.0592537 0.09828788 0.39423481 2 -1
2.0183632 0.079622269 0.41297334 2 -1
1.9389548 0.0802809 0.37753379 2 -1
1.9099081 0.081406355 0.39856285 2 -1
1.8628672 0.083042622 0.39499456 2 -1
1.8278401 0.084841251 0.40679607 2 -1
1.7482278 0.0864048 0.40855888 2 -1
1.7396944 0.087711036 0.40645909 2 -1
1.6943834 0.082424402 0.4144567 2 -1
1.654454 0.091877401 0.40178901 2 -1
1.3923144 1.4074621 0.44371605 3 -1
1.4056141 1.4030004 0.43595257 3 -1
1.4008355 1.399467 0.429867 3 -1
1.4341663 1.3857534 0.43480828 3 -1
1.444898 1.3486707 0.44474715 3 -1
1.4501781 1.3470421 0.45217574 3 -1
1.44926 1.3338983 0.43999675 3 -1
1.4618666 1.3269143 0.45854831 3 -1
1.4730351 1.3132776 0.46180937 3 -1
1.4785982 1.3123513 0.43118387 3 -1
1.4880818 1.2814174 0.46372226 3 -1
1.5118322 1.2842565 0.46271423 3 -1
1.5009327 1.2610927 0.44783241 3 -1
1.5107036 1.2762458 0.44457841 3 -1
1.546838 1.275524 0.45876485 3 -1
1.5514638 1.2353262 0.46010819 3 -1
1.5483001 1.2629577 0.44993335 3 -1
1.5707493 1.2234844 0.45293626 3 -1
1.565472 1.2102735 0.44274625 3 -1
1.5847307 1.2409358 0.45036292 3 -1
1.5934999 1.1773884 0.45122489 3 -1
1.6180441 1.1905706 0.43963432 3 -1
1.6232145 1.1651392 0.45896405 3 -1
1.6450617 1.1684999 0.4505882 3 -1
1.6563296 1.1531557 0.45281178 3 -1
1.6653972 1.1595541 0.4424451 3 -1
1.6981051 1.1344073 0.43565202 3 -1
1.7217128 1.1212742 0.44539997 3 -1
1.7445517 1.0971637 0.44593042 3 -1
1.7683198 1.0951046 0.46114159 3 -1
1.8026834 1.0831501 0.45648807 3 -1
1.8363376 1.0583061 0.44233367 3 -1
1.875051 1.0480599 0.44423068 3 -1
1.9536979 1.0150331 0.42384931 3 -1
2.0448973 0.99753708 0.42267689 3 -1
5.2860308 0.87093711 0.29293811 3 -1
7.0971889 0.61815894 0.21984303 1 -1
7.087554 0.43903178 0.20987925 1 -1
7.0960188 0.25818855 0.21692124 1 -1
7.0897226 0.072395504 0.24896839 1 -1
6.4791775 0.0081099272 0.24517024 1 -1
5.6349545 0.016261756 0.29404849 2 -1
5.0279722 0.029289782 0.30058384 2 -1
4.5392575 0.050861657 0.31445771 2 -1
4.1791039 0.046625912 0.32493287 2 -1
3.8572192 0.040729284 0.32752112 2 -1
3.6161408 0.048497558 0.35631993 2 -1
3.4020886 0.077538192 0.35066342 2 -1
3.2042861 0.060477912 0.35563797 2 -1
3.0444186 0.057435811 0.3775239 2 -1
2.9111705 0.073712707 0.37950319 2 -1
2.7805092 0.069013417 0.38676679 2 -1
2.6704664 0.093341887 0.39299625 2 -1
2.5635471 0.075839102 0.40504321 2 -1
2.4637644 0.093544126 0.38223431 2 -1
2.3953271 0.078183889 0.40407878 2 -1
2.3131285 0.080484331 0.42741853 2 -1
2.2406018 0.093451381 0.41127044 2 -1
2.1658156 0.07778585 0.39790878 2 -1
2.0897288 0.078881443 0.42533338 2 -1
2.0607524 0.10156769 0.40969974 2 -1
2.0173011 0.063077092 0.42605487 2 -1
1.9490994 0.092529833 0.40915424 2 -1
1.8880377 0.092964053 0.42854616 2 -1
1.8493243 0.089349806 0.42385185 2 -1
1.8043606 0.086046696 0.41898063 2 -1
1.7519693 0.1015805 0.43879917 2 -1
1.7297125 0.07438463 0.42442846 2 -1
1.6819875 0.10523719 0.44526166 2 -1
1.6466962 0.075208962 0.43807974 2 -1
1.4000794 1.4073279 0.47399572 3 -1
1.4207432 1.3882279 0.4541668 3 -1
1.4218906 1.3880377 0.47177041 3 -1
1.4334962 1.3865236 0.45958471 3 -1
1.4401902 1.3696047 0.4574247 3 -1
1.4564536 1.3431361 0.461916 3 -1
1.4341643 1.3527408 0.4898324 3 -1
1.4530425 1.3364092 0.46477506 3 -1
1.4631462 1.3286617 0.45516384 3 -1
1.4834127 1.304559 0.46989059 3 -1
1.4654013 1.2806516 0.44713333 3 -1
1.5052415 1.306901 0.44956675 3 -1
1.5000596 1.2725003 0.44250095 3 -1
1.4965478 1.3011024 0.4430598 3 -1
1.5330131 1.2598462 0.47190642 3 -1
1.5440906 1.2482029 0.46515191 3 -1
1.5456915 1.2293799 0.45078322 3 -1
1.5553689 1.231056 0.4471665 3 -1
1.569721 1.2267512 0.47626379 3 -1
1.5962279 1.1915926 0.45005533 3 -1
1.584578 1.2016231 0.4487766 3 -1
1.6158969 1.2133912 0.47167158 3 -1
1.6166582 1.181201 0.46678305 3 -1
1.6556323 1.1512815 0.45936632 3 -1
1.6637425 1.1547707 0.45665222 3 -1
1.6646441 1.1507468 0.44218305 3 -1
1.7006812 1.1183611 0.44845331 3 -1
1.7132347 1.1129643 0.44433719 3 -1
1.7411542 1.1073813 0.47194466 3 -1
1.7859151 1.1034814 0.47907749 3 -1
1.8045454 1.0797315 0.46597797 3 -1
1.8404722 1.0401639 0.44469479 3 -1
1.8905945 1.0471412 0.4552238 3 -1
1.955806 1.0318249 0.4538064 3 -1
2.0401106 1.0111651 0.47093648 3 -1
5.2806215 0.86501014 0.37723991 3 -1
7.0878 0.61846232 0.33794111 2 -1
7.0951748 0.45075577 0.32501853 2 -1
7.09268 0.28239226 0.3532311 2 -1
7.0930319 0.067698419 0.35185653 2 -1
6.4755764 0.006003499 0.35368416 2 -1
5.6301804 0.0056171417 0.37826076 2 -1
5.0083733 0.019113839 0.39981481 2 -1
4.533144 0.03092736 0.39846161 2 -1
4.1644311 0.05224967 0.39535326 2 -1
3.8515315 0.054637671 0.41436869 2 -1
3.6033115 0.05435878 0.43608934 2 -1
3.3919892 0.049214065 0.4130072 2 -1
3.1971307 0.069122136 0.41329277 2 -1
3.0444136 0.057423353 0.41390413 2 -1
2.8950033 0.085314095 0.41028178 2 -1
2.7773476 0.056495786 0.42185491 2 -1
2.6754694 0.07429564 0.42762083 2 -1
2.5653043 0.08733362 0.4293645 2 -1
2.4763036 0.065850675 0.43391326 2 -1
2.3831277 0.07286948 0.44509986 2 -1
2.3069282 0.075802684 0.41860673 2 -1
2.2445145 0.095058501 0.42625493 2 -1
2.1797588 0.09839958 0.4452568 2 -1
2.1004529 0.082640529 0.43302244 2 -1
2.045912 0.094113588 0.44482744 2 -1
1.986455 0.088214099 0.44044963 2 -1
1.961153 0.082463264 0.45451778 2 -1
1.9045131 0.072453678 0.43189117 2 -1
1.8668221 0.085653126 0.4423258 2 -1
1.8130255 0.089666665 0.44519609 2 -1
1.7631178 0.10017067 0.42718011 2 -1
1.7332835 0.091329813 0.42872638 2 -1
1.702503 0.10426688 0.44753158 2 -1
1.6504872 0.096334636 0.44255385 2 -1
1.4043727 1.4176961 0.47347564 3 -1
1.4169689 1.4001133 0.47159609 3 -1
1.4098604 1.3870478 0.47639808 3 -1
1.441557 1.3696252 0.46902177 3 -1
1.4086609 1.3441865 0.46526861 3 -1
1.4490746 1.3343687 0.47631145 3 -1
1.4461759 1.3507078 0.4850578 3 -1
1.45962 1.3307261 0.48280808 3 -1
1.4724863 1.3140264 0.47112003 3 -1
1.4756908 1.3135664 0.46928456 3 -1
1.4871968 1.2990196 0.45205626 3 -1
1.4823719 1.2965755 0.49218619 3 -1
1.499584 1.2830335 0.466196 3 -1
1.5118783 1.2709279 0.47637734 3 -1
1.5487311 1.2597145 0.46949768 3 -1
1.5355182 1.2495384 0.46332932 3 -1
1.5443575 1.2285979 0.46962672 3 -1
1.5642731 1.2302015 0.45952931 3 -1
1.593158 1.2123027 0.48158118 3 -1
1.5930583 1.2179251 0.47272041 3 -1
1.6194692 1.1880801 0.47606671 3 -1
1.6171899 1.1963197 0.47361282 3 -1
1.6221385 1.2007359 0.46598902 3 -1
1.6566029 1.1521063 0.48620558 3 -1
1.6678867 1.1484141 0.46484792 3 -1
1.6715856 1.1446363 0.46037209 3 -1
1.6912408 1.1431341 0.4693085 3 -1
1.7116102 1.1048291 0.46323326 3 -1
1.7240245 1.1029378 0.4814086 3 -1
1.7701081 1.1125371 0.46144134 3 -1
1.7963997 1.0935893 0.48101056 3 -1
1.8405566 1.0748904 0.47864258 3 -1
1.8901534 1.0398791 0.4711771 3 -1
1.9487815 1.039127 0.48959357 3 -1
2.0299501 1.0065471 0.4663333 3 -1
5.2872849 0.8439306 0.4706291 3 -1
7.0967646 0.64271283 0.47767186 2 -1
7.0857487 0.44914931 0.47435704 2 -1
7.068615 0.24898463 0.4854455 2 -1
7.0850983 0.075374484 0.47692764 2 -1
6.4697361 0.0011922717 0.46839893 2 -1
5.6228333 0.022983074 0.45640039 2 -1
5.0118885 0.021139622 0.45833182 2 -1
4.541543 0.047283888 0.46455541 2 -1
4.1898437 0.05700779 0.48629308 2 -1
3.8412409 0.078099489 0.46688476 2 -1
3.6009541 0.05460149 0.47202998 2 -1
3.4039135 0.064997852 0.46492147 2 -1
3.2082543 0.048099756 0.4620111 2 -1
3.045902 0.0527789 0.47085312 2 -1
2.9097195 0.068829417 0.45729908 2 -1
2.7735765 0.076119125 0.48306724 2 -1
2.6580417 0.083136559 0.46041492 2 -1
2.5600915 0.072140992 0.46965963 2 -1
2.4628611 0.10086936 0.47223911 2 -1
2.3910286 0.084027052 0.48286673 2 -1
2.3171816 0.068298578 0.48737225 2 -1
2.2500134 0.077683389 0.48156881 2 -1
2.1942701 0.075169921 0.46959034 2 -1
2.115211 0.086150825 0.48371005 2 -1
2.0456316 0.073701382 0.49804366 2 -1
1.9930956 0.071144164 0.48132145 2 -1
1.9634154 0.082497597 0.48603156 2 -1
1.888435 0.096998036 0.47026891 2 -1
1.840749 0.084723175 0.48303881 2 -1
1.8115692 0.078752339 0.47553307 2 -1
1.7841184 0.10113388 0.45965949 2 -1
1.7377179 0.09748739 0.47424486 2 -1
1.6701138 0.076102018 0.47163117 2 -1
1.6578561 0.10071224 0.46333295 2 -1
1.3958774 1.4274478 0.47016332 3 -1
1.3886657 1.3868406 0.47960246 3 -1
1.4160514 1.3891025 0.4820784 3 -1
1.4270267 1.3725842 0.48459703 3 -1
1.4402573 1.3675201 0.47971052 3 -1
1.4327861 1.3526852 0.47416592 3 -1
1.4614987 1.3359361 0.47935015 3 -1
1.4671341 1.3265765 0.49033216 3 -1
1.4778085 1.3312247 0.50492698 3 -1
1.4642324 1.2927411 0.48517063 3 -1
1.5014461 1.3016827 0.48248154 3 -1
1.503113 1.2964215 0.48807997 3 -1
1.4893441 1.2791952 0.4803054 3 -1
1.5264864 1.2673705 0.47886977 3 -1
1.5405669 1.2576506 0.46872437 3 -1
1.5430753 1.246013 0.47288796 3 -1
1.5422585 1.2466118 0.49014857 3 -1
1.547843 1.2429593 0.4841786 3 -1
1.5708778 1.2101158 0.48903948 3 -1
1.5769454 1.1953064 0.48354289 3 -1
1.6227267 1.2131338 0.4788633 3 -1
1.6230681 1.1893592 0.4799597 3 -1
1.5980142 1.1837357 0.4903636 3 -1
1.6401563 1.1664584 0.4698354 3 -1
1.6423355 1.1818414 0.4633854 3 -1
1.6922822 1.1455498 0.47570798 3 -1
1.6933143 1.1290507 0.50161165 3 -1
1.6962681 1.1235205 0.47856867 3 -1
1.7488992 1.1142874 0.48541284 3 -1
1.7777742 1.0875803 0.47653839 3 -1
1.7997657 1.0773811 0.49647811 3 -1
1.8346915 1.055496 0.48429021 3 -1
1.8868163 1.0587668 0.48941612 3 -1
1.9624598 1.0298822 0.48591745 3 -1
2.0516133 0.99123079 0.48081893 3 -1
5.2813654 0.86138475 0.57549483 3 -1
7.083663 0.61416805 0.59089702 2 -1
7.0828247 0.42684519 0.6042372 2 -1
7.0877132 0.23506051 0.60378784 2 -1
7.061676 0.080669224 0.59989357 2 -1
6.4739504 0.0010123253 0.58467513 2 -1
5.6398249 0.022282958 0.57954109 2 -1
5.0099049 0.011342049 0.55372757 2 -1
4.533113 0.050241768 0.56705445 2 -1
4.1629739 0.036986113 0.5269556 2 -1
3.8611426 0.054534614 0.52953845 2 -1
3.5923238 0.077457786 0.51549882 2 -1
3.379838 0.068727493 0.51242703 2 -1
3.1853271 0.060571194 0.50815427 2 -1
3.0406168 0.069561362 0.51657653 2 -1
2.8977318 0.066510558 0.5120042 2 -1
2.7806821 0.052473664 0.51568007 2 -1
2.6477261 0.092660844 0.49743307 2 -1
2.5620329 0.076366961 0.52735877 2 -1
2.4834805 0.081896722 0.48377746 2 -1
2.3838847 0.078145742 0.49295402 2 -1
2.3123572 0.086177886 0.50533634 2 -1
2.2465982 0.087279797 0.49626681 2 -1
2.164592 0.079044342 0.4973909 2 -1
2.1271238 0.09092766 0.49733526 2 -1
2.0500383 0.078295827 0.49837297 2 -1
2.0051973 0.087899983 0.49620155 2 -1
1.9410753 0.075140238 0.494699 2 -1
1.8825824 0.08269906 0.50924939 2 -1
1.8467391 0.089545012 0.49886206 2 -1
1.8202889 0.093965948 0.47691789 2 -1
1.7659093 0.06398648 0.4961887 2 -1
1.7017534 0.1009751 0.48877937 2 -1
1.6941795 0.09950012 0.50134385 2 -1
1.6691291 0.09622395 0.4782353 2 -1
1.3998239 1.4123235 0.49801937 3 -1
1.4140978 1.4010819 0.48157033 3 -1
1.4163191 1.390285 0.50087214 3 -1
1.4203678 1.3714166 0.49713215 3 -1
1.4210112 1.3749747 0.49175954 3 -1
1.4252987 1.3555568 0.49895012 3 -1
1.4508822 1.3370516 0.49139062 3 -1
1.449748 1.3277782 0.48141444 3 -1
1.473531 1.3208301 0.48330393 3 -1
1.4944332 1.3297216 0.4832406 3 -1
1.4914303 1.2972003 0.48163745 3 -1
1.510206 1.3067377 0.47323972 3 -1
1.5272162 1.2931738 0.48531878 3 -1
1.5144453 1.2761314 0.49806163 3 -1
1.5348284 1.2531967 0.49062389 3 -1
1.5514517 1.2566586 0.48186526 3 -1
1.5412693 1.2432432 0.49246085 3 -1
1.5507643 1.2257622 0.49500108 3 -1
1.5740576 1.2208371 0.51219898 3 -1
1.5829123 1.2115784 0.50298351 3 -1
1.5974216 1.1955223 0.5012514 3 -1
1.6070149 1.1856116 0.47463623 3 -1
1.6181686 1.1786214 0.4934679 3 -1
1.6474584 1.1732026 0.48720625 3 -1
1.6598291 1.1442832 0.48026991 3 -1
1.6612329 1.1575233 0.4878183 3 -1
1.7010506 1.1335692 0.48652777 3 -1
1.6960595 1.1194477 0.49789619 3 -1
1.7244642 1.1055436 0.50267273 3 -1
1.7638121 1.108289 0.49904159 3 -1
1.7861954 1.0794321 0.4912101 3 -1
1.8202112 1.0540671 0.49733999 3 -1
1.8766041 1.0434083 0.49224961 3 -1
1.938813 1.0188016 0.50844586 3 -1
2.0621817 0.99253094 0.51311272 3 -1
5.2891445 0.85323894 0.638309 3 -1
7.1057377 0.61383033 0.7214402 2 -1
7.0807009 0.46103597 0.72740591 2 -1
7.0702639 0.23897254 0.71356863 2 -1
7.0780001 0.093680501 0.72673398 2 -1
6.4760303 0.00084292889 0.70397854 2 -1
5.6214046 0.023031116 0.67174447 2 -1
5.0275354 0.03827858 0.61754721 2 -1
4.5480804 0.045096397 0.63044024 2 -1
4.1736746 0.053281128 0.61244333 2 -1
3.8520856 0.052117109 0.60646498 2 -1
3.5927968 0.076871812 0.57104415 2 -1
3.3881774 0.059923649 0.57754064 2 -1
3.2093773 0.055447996 0.55883574 2 -1
3.0499318 0.058187306 0.55376798 2 -1
2.9086406 0.058164895 0.54979223 2 -1
2.7729261 0.05218178 0.55332321 2 -1
2.6624055 0.087574601 0.55922949 2 -1
2.5718246 0.055561602 0.52387995 2 -1
2.4636722 0.083768845 0.52605581 2 -1
2.3774228 0.058796704 0.52716869 2 -1
2.2986815 0.078359127 0.52478975 2 -1
2.2466888 0.079511881 0.53317785 2 -1
2.1881003 0.09971112 0.54866499 2 -1
2.1079051 0.084437728 0.52276343 2 -1
2.052362 0.09968555 0.51476425 2 -1
2.0042953 0.088986993 0.53172362 2 -1
1.9375014 0.098504364 0.50394732 2 -1
1.9085045 0.098373652 0.52082551 2 -1
1.8663228 0.082894444 0.51743346 2 -1
1.8011615 0.084562898 0.5124619 2 -1
1.7812724 0.09314245 0.51365966 2 -1
1.7338558 0.067023218 0.51242185 2 -1
1.6927092 0.080316544 0.51872772 2 -1
1.6627285 0.092428803 0.50183058 2 -1
1.4047804 1.4263196 0.49747139 3 -1
1.4076736 1.3839128 0.52021289 3 -1
1.41706 1.3854303 0.50740874 3 -1
1.4207473 1.3613739 0.51411676 3 -1
1.4288502 1.362568 0.48814821 3 -1
1.4380019 1.3505634 0.49940726 3 -1
1.4515104 1.3164716 0.50157779 3 -1
1.4632368 1.3287296 0.51479363 3 -1
1.4781362 1.3226466 0.51622003 3 -1
1.4754804 1.3204454 0.49192747 3 -1
1.5048795 1.2954998 0.51287168 3 -1
1.4952292 1.3083454 0.5147844 3 -1
1.5126376 1.268724 0.51055425 3 -1
1.5078318 1.2744381 0.50375861 3 -1
1.5343771 1.2599561 0.50879622 3 -1
1.558603 1.2623026 0.51095104 3 -1
1.5598383 1.2340637 0.50404608 3 -1
1.5590074 1.2340809 0.49583638 3 -1
1.5674183 1.2192334 0.49800456 3 -1
1.5850163 1.2134957 0.51633441 3 -1
1.5954984 1.1888065 0.5247972 3 -1
1.6002586 1.1884096 0.50607508 3 -1
1.6126591 1.1864076 0.51214021 3 -1
1.627925 1.1830156 0.49942926 3 -1
1.6486082 1.1646681 0.48600215 3 -1
1.675516 1.1424687 0.50912964 3 -1
1.6931925 1.1275053 0.52087528 3 -1
1.7096865 1.1166612 0.49642009 3 -1
1.7306211 1.1133443 0.50519419 3 -1
1.7600783 1.0984633 0.51398057 3 -1
1.7793047 1.0803969 0.49910867 3 -1
1.8213396 1.065515 0.49830389 3 -1
1.8854082 1.0512711 0.52130306 3 -1
1.9548767 1.0189375 0.54097944 3 -1
2.049911 0.98709726 0.52583671 3 -1
5.2941275 0.85975385 0.73665345 3 -1
7.1066771 0.61454046 0.86345971 2 -1
7.0728703 0.45391828 0.85160625 2 -1
7.0716867 0.25858855 0.84583032 2 -1
7.078618 0.059338152 0.86665213 2 -1
6.4529858 0.001562953 0.83743984 2 -1
5.6308556 0.019549608 0.76746416 2 -1
5.006074 0.037088156 0.71741027 2 -1
4.5510769 0.031377792 0.68508077 2 -1
4.1570983 0.050139904 0.67108774 2 -1
3.8618903 0.05096674 0.65611696 2 -1
3.6163497 0.04916513 0.65859038 2 -1
3.3985238 0.044938624 0.61988252 2 -1
3.220675 0.048850596 0.61937565 2 -1
3.0392036 0.071258724 0.61320597 2 -1
2.8923059 0.070038021 0.61183798 2 -1
2.7644625 0.079065025 0.60126895 2 -1
2.6618924 0.08519268 0.57953894 2 -1
2.5604978 0.06744653 0.56497049 2 -1
2.4639904 0.082291782 0.54707444 2 -1
2.3951583 0.085195422 0.56772089 2 -1
2.3322144 0.075370491 0.57883 2 -1
2.2430043 0.098882735 0.55576706 2 -1
2.1704898 0.082377791 0.55245656 2 -1
2.1320798 0.11227202 0.55188346 2 -1
2.0488262 0.075056911 0.55018979 2 -1
1.9987514 0.088989019 0.53507024 2 -1
1.9618289 0.093353927 0.53581685 2 -1
1.90622 0.092514038 0.54988372 2 -1
1.8565434 0.084019899 0.53883731 2 -1
1.8108613 0.10216457 0.54838008 2 -1
1.7664194 0.08658427 0.54694247 2 -1
1.7355096 0.10004288 0.54846823 2 -1
1.6974261 0.088711798 0.5179826 2 -1
1.6658599 0.10407704 0.53425688 2 -1
1.3883207 1.4280083 0.50061226 3 -1
1.4281018 1.4065245 0.50645983 3 -1
1.4159563 1.3660772 0.49638498 3 -1
1.4402673 1.3687029 0.52407306 3 -1
1.425256 1.3517394 0.50095809 3 -1
1.4357712 1.3649951 0.52219975 3 -1
1.445828 1.3358963 0.52168494 3 -1
1.4589987 1.3343514 0.505961 3 -1
1.4566158 1.3368404 0.49812818 3 -1
1.4692359 1.3083137 0.48691249 3 -1
1.4803989 1.2814827 0.51237869 3 -1
1.5010529 1.3012321 0.5322051 3 -1
1.4948931 1.2848229 0.50164682 3 -1
1.5169766 1.3037282 0.50415689 3 -1
1.5153742 1.2745023 0.50892764 3 -1
1.565232 1.238808 0.4985016 3 -1
1.5506024 1.2471807 0.504152 3 -1
1.5538362 1.2290915 0.51492822 3 -1
1.5583695 1.2120205 0.52251786 3 -1
1.5791831 1.1970158 0.52376688 3 -1
1.5965633 1.1851597 0.51229978 3 -1
1.6223638 1.182566 0.51478094 3 -1
1.6050165 1.1774243 0.5067569 3 -1
1.6366968 1.1896348 0.52773571 3 -1
1.6522281 1.1592067 0.50408077 3 -1
1.6731224 1.1348553 0.52841079 3 -1
1.6926737 1.1317909 0.50749898 3 -1
1.7162433 1.1179464 0.52611327 3 -1
1.7162576 1.1248832 0.52496785 3 -1
1.782768 1.0991167 0.52701062 3 -1
1.8003767 1.0738708 0.52455443 3 -1
1.8569713 1.0767081 0.54328549 3 -1
1.8654671 1.044958 0.53178012 3 -1
1.9571996 1.031266 0.54214734 3 -1
2.0625875 1.0057924 0.57021075 3 -1
5.277854 0.85984671 0.82523322 3 -1
7.0928011 0.61273539 0.97030127 2 -1
7.0635128 0.4327426 1.0046337 2 -1
7.0914459 0.26530677 0.97674441 2 -1
7.0697374 0.076554239 0.98100102 2 -1
6.4453831 0.019948125 0.9444499 2 -1
5.6224918 0.0089175701 0.85838348 2 -1
5.0054274 0.029147208 0.82503146 2 -1
4.5411692 0.063238561 0.75574625 2 -1
4.1507187 0.044069171 0.74576718 2 -1
3.8542519 0.052685738 0.71096516 2 -1
3.6140351 0.05473268 0.68831062 2 -1
3.3856277 0.057771564 0.67156005 2 -1
3.2010412 0.078644872 0.66925305 2 -1
3.0509562 0.056530297 0.65308583 2 -1
2.8992889 0.051764131 0.63310009 2 -1
2.7693493 0.082369626 0.62720013 2 -1
2.6869197 0.062023342 0.63374054 2 -1
2.5715947 0.074932992 0.62195069 2 -1
2.4795256 0.07559365 0.61338502 2 -1
2.3846741 0.083830237 0.6140973 2 -1
2.2962141 0.072776914 0.59605825 2 -1
2.2604327 0.076984882 0.58396524 2 -1
2.1717753 0.088568926 0.59099585 2 -1
2.0961552 0.099849045 0.6091187 2 -1
2.0613227 0.068680882 0.5884639 2 -1
2.0045674 0.062234104 0.54797804 2 -1
1.9603868 0.088687181 0.58054292 2 -1
1.8831966 0.089930475 0.56914705 2 -1
1.8669339 0.10940576 0.57717532 2 -1
1.8051946 0.092333198 0.55937308 2 -1
1.7866218 0.087304056 0.57070887 2 -1
1.7325222 0.069479704 0.56132638 2 -1
1.6931326 0.09343797 0.5685842 2 -1
1.6855364 0.084749222 0.58976281 2 -1
1.3852112 1.4090061 0.54266286 3 -1
1.4176557 1.3920976 0.52798033 3 -1
1.4208306 1.3816109 0.51795012 3 -1
1.4252748 1.368194 0.52566236 3 -1
1.435982 1.3576133 0.51383668 3 -1
1.438472 1.3628439 0.54199415 3 -1
1.4480611 1.3428546 0.51365095 3 -1
1.4440339 1.3289018 0.50569892 3 -1
1.484895 1.3099761 0.5136978 3 -1
1.4873683 1.3097911 0.52660549 3 -1
1.4911535 1.3092898 0.5199905 3 -1
1.5102702 1.2962375 0.51924419 3 -1
1.5004959 1.2927502 0.51884723 3 -1
1.5279155 1.2697501 0.5249334 3 -1
1.5311019 1.2808473 0.51508033 3 -1
1.5160511 1.2337857 0.50760978 3 -1
1.5415101 1.2321342 0.52101028 3 -1
1.5547088 1.2466959 0.51949936 3 -1
1.5460477 1.2261586 0.52918726 3 -1
1.5779486 1.202078 0.51178652 3 -1
1.5883803 1.2131065 0.53409487 3 -1
1.6113075 1.1918069 0.49882111 3 -1
1.6283267 1.1682856 0.52952981 3 -1
1.6214564 1.1823671 0.51430726 3 -1
1.6659641 1.1603653 0.53406006 3 -1
1.6617091 1.1557541 0.54126942 3 -1
1.7072973 1.1366311 0.53713667 3 -1
1.6758831 1.1305854 0.5381813 3 -1
1.7252424 1.1030575 0.54031575 3 -1
1.7595816 1.088109 0.54159123 3 -1
1.7999084 1.0708363 0.52693796 3 -1
1.8197334 1.0557082 0.54880053 3 -1
1.8611872 1.0339105 0.55752361 3 -1
1.9435766 1.0230082 0.55997479 3 -1
2.0420153 1.0095221 0.58361661 3 -1
5.2698174 0.85402262 0.92327183 3 -1
7.0877504 0.6320051 1.0930854 2 -1
7.0895844 0.44477427 1.1178014 2 -1
7.0841408 0.25388902 1.1022308 2 -1
7.0721741 0.066672146 1.1177325 2 -1
6.4480362 0.010726094 1.0614785 2 -1
5.6173592 0.020557165 0.94628775 2 -1
5.024272 0.044270277 0.89798164 2 -1
4.5299044 0.044349253 0.83368361 2 -1
4.1497107 0.037364006 0.80900866 2 -1
3.8498282 0.049323499 0.77129811 2 -1
3.6009359 0.044005692 0.75151092 2 -1
3.3888378 0.05980891 0.73322666 2 -1
3.1844187 0.056538224 0.72057986 2 -1
3.0405626 0.075482547 0.68469328 2 -1
2.9068048 0.072274148 0.69001836 2 -1
2.7726812 0.079714119 0.66799462 2 -1
2.6731949 0.067538917 0.65079159 2 -1
2.5570188 0.076225102 0.63949186 2 -1
2.4644873 0.071040154 0.62257725 2 -1
2.4003525 0.080125093 0.65722024 2 -1
2.3060002 0.079100549 0.63561082 2 -1
2.2413001 0.076886058 0.63039017 2 -1
2.1760728 0.06942451 0.61700118 2 -1
2.0936303 0.08642751 0.59197682 2 -1
2.0480375 0.088387609 0.60706449 2 -1
2.0022287 0.094999433 0.60371673 2 -1
1.9468448 0.078474224 0.59682918 2 -1
1.9064646 0.10415578 0.58094972 2 -1
1.8641148 0.093328476 0.59843338 2 -1
1.8027892 0.089877665 0.59433365 2 -1
1.7729244 0.093347609 0.58634907 2 -1
1.7298291 0.088626742 0.59515101 2 -1
1.6936753 0.10589403 0.57367152 2 -1
1.6554143 0.10899657 0.58315384 2 -1
1.4020555 1.4356222 0.52377087 3 -1
1.3905598 1.3992131 0.51247948 3 -1
1.4188294 1.3954089 0.50495708 3 -1
1.4291294 1.4022913 0.54348975 3 -1
1.4348986 1.3524033 0.54514962 3 -1
1.4375815 1.341985 0.5402475 3 -1
1.4579537 1.3397455 0.51326376 3 -1
1.4558377 1.3099387 0.53031492 3 -1
1.4696019 1.3136773 0.51746827 3 -1
1.4958918 1.3166385 0.51913261 3 -1
1.4818244 1.2853138 0.5373764 3 -1
1.5026052 1.29936 0.54825407 3 -1
1.5124574 1.2913284 0.52525848 3 -1
1.5154605 1.2927854 0.52068496 3 -1
1.5306857 1.2644629 0.54603219 3 -1
1.5512081 1.2598486 0.54191792 3 -1
1.5436691 1.2300377 0.53777343 3 -1
1.5644331 1.2198713 0.5429315 3 -1
