# .PCD v0.7 - Point Cloud Data file format
VERSION 0.7
FIELDS x y z label
SIZE 4 4 4 4
TYPE F F F U
COUNT 1 1 1 1
WIDTH 1341
HEIGHT 1
VIEWPOINT 5.6 7.00001 0.0997684 1 0 0 0
POINTS 1341
DATA ascii
5.0341592 6.4855332 0.31346703 3 -1
5.0714769 6.5190306 0.30956131 3 -1
5.0915518 6.5434031 0.30707327 3 -1
5.102735 6.5806904 0.36931956 3 -1
5.1183643 6.6083789 0.3192153 3 -1
5.1282082 6.6227217 0.35073686 3 -1
5.1326489 6.6440115 0.37088448 3 -1
5.138443 6.6779289 0.34741405 3 -1
5.1515207 6.6940999 0.35612696 3 -1
5.1374888 6.7368231 0.35879189 3 -1
5.1375456 6.7367635 0.36671558 3 -1
5.1554642 6.7394671 0.376948 3 -1
5.1391754 6.7451997 0.38595697 3 -1
5.1551747 6.7785249 0.38058281 3 -1
5.1591258 6.78304 0.3965219 3 -1
5.1533923 6.7818875 0.37816018 3 -1
5.1669803 6.8031268 0.38364807 3 -1
5.177247 6.8131328 0.37773514 3 -1
5.1600227 6.8365006 0.38864163 3 -1
5.1845517 6.8425474 0.38806221 3 -1
5.1803689 6.8417602 0.37712559 3 -1
5.1775203 6.8616385 0.38291913 3 -1
5.198247 6.8790975 0.35656011 3 -1
5.1977711 6.8822942 0.37568167 3 -1
6.2311506 5.5723095 0.13008764 1 -1
6.2078543 5.5656457 0.11406648 1 -1
6.1564999 5.5142303 0.11729831 1 -1
6.1073923 5.4972219 0.11052349 1 -1
6.0864959 5.4867172 0.10148045 1 -1
6.0476489 5.4795794 0.104765 1 -1
5.989316 5.4622555 0.11816162 1 -1
5.9557137 5.4359465 0.10250893 1 -1
5.9057436 5.4425416 0.11914793 1 -1
5.8630381 5.4222374 0.13777423 1 -1
5.8283587 5.4208565 0.094988048 1 -1
5.7672281 5.4241381 0.11497709 1 -1
5.7382827 5.3953085 0.12149569 1 -1
5.6715293 5.3975511 0.11418477 1 -1
5.6515803 5.4009328 0.12308031 1 -1
5.5908709 5.3855042 0.1038464 1 -1
5.5259795 5.3887148 0.10920376 1 -1
5.506948 5.3620982 0.11352009 1 -1
5.4795375 5.3814864 0.11506662 1 -1
5.4050341 5.3868265 0.11353582 1 -1
5.357235 5.4009433 0.10250014 1 -1
5.313633 5.397728 0.10877866 1 -1
5.2613363 5.3968544 0.13457337 1 -1
5.2492447 5.4178739 0.12750325 1 -1
5.1910229 5.4307141 0.10909155 1 -1
5.147851 5.4436197 0.12587571 1 -1
5.1136231 5.4301243 0.11990708 1 -1
5.0927949 5.4764047 0.1100499 1 -1
5.0220661 5.4743752 0.12124765 1 -1
4.9837551 5.4917173 0.13512525 1 -1
4.9312835 5.5049543 0.1107572 1 -1
4.9102507 5.5260925 0.13725695 1 -1
4.8456903 5.5377865 0.11073065 1 -1
4.8301177 5.5738583 0.12213016 1 -1
4.7919912 5.5844746 0.12215093 1 -1
4.7447371 5.6199102 0.13930216 1 -1
4.6916447 5.6350675 0.1133357 1 -1
4.6736302 5.6698484 0.11376289 1 -1
4.6240869 5.6819887 0.11575276 1 -1
4.5935216 5.7256627 0.099405855 1 -1
4.5650015 5.7638149 0.12374908 1 -1
4.5288711 5.7817612 0.12859491 1 -1
4.4766402 5.8170986 0.11017942 1 -1
4.4623656 5.8392239 0.12013015 1 -1
4.4365435 5.8699985 0.11596057 1 -1
4.9978175 6.4024477 0.31473547 3 -1
5.0392857 6.4704666 0.32429284 3 -1
5.0509229 6.5066614 0.33964765 3 -1
5.0876899 6.5554628 0.31793708 3 -1
5.08954 6.5845041 0.34017015 3 -1
5.0973248 6.6120543 0.35841146 3 -1
5.1003399 6.6368823 0.36326626 3 -1
5.1398911 6.6603293 0.35016128 3 -1
5.1201558 6.6907034 0.37363875 3 -1
5.1473646 6.693635 0.35994622 3 -1
5.1226506 6.7190299 0.38608131 3 -1
5.1469798 6.7178187 0.37649509 3 -1
5.1535749 6.7617531 0.35917443 3 -1
5.1486058 6.7506924 0.37937564 3 -1
5.1501646 6.7482872 0.38680047 3 -1
5.1738777 6.7881417 0.37630507 3 -1
5.1816711 6.7974768 0.38070095 3 -1
5.1794586 6.8075442 0.37590092 3 -1
5.1789446 6.8129597 0.37715346 3 -1
5.1651244 6.8173356 0.38897359 3 -1
5.179513 6.8188534 0.39566931 3 -1
5.1912756 6.8455157 0.40122604 3 -1
5.1927695 6.8574224 0.40274191 3 -1
5.1950216 6.8694878 0.37565732 3 -1
5.2103276 6.8628159 0.4042626 3 -1
6.3320384 5.4592013 0.1166586 1 -1
6.2626333 5.4258928 0.12582311 1 -1
6.2428298 5.3931832 0.10285884 1 -1
6.1768022 5.3703241 0.12408057 1 -1
6.1252656 5.3651457 0.1144118 1 -1
6.0729446 5.3436527 0.11666369 1 -1
6.0424118 5.3194838 0.12330183 1 -1
5.9938488 5.3029566 0.1047118 1 -1
5.9713731 5.2926936 0.11761087 1 -1
5.8975759 5.2760954 0.1184673 1 -1
5.8513656 5.2687473 0.13048315 1 -1
5.7987766 5.2506752 0.11247438 1 -1
5.7441335 5.2469463 0.11847225 1 -1
5.7061934 5.2494307 0.11052126 1 -1
5.6388788 5.2456136 0.12181309 1 -1
5.5929108 5.2377906 0.12379158 1 -1
5.5499849 5.2574358 0.09750104 1 -1
5.4955072 5.2298603 0.12005481 1 -1
5.4579611 5.2357378 0.11185119 1 -1
5.4127631 5.232089 0.10573709 1 -1
5.3555393 5.2359338 0.11938965 1 -1
5.3194709 5.2456236 0.12768736 1 -1
5.2762656 5.2706738 0.10377458 1 -1
5.2162261 5.2643003 0.10038328 1 -1
5.1572232 5.2905483 0.12188086 1 -1
5.1217222 5.284781 0.1267837 1 -1
5.0678306 5.3052907 0.11427554 1 -1
5.0342121 5.3301258 0.11946565 1 -1
4.9892387 5.3290892 0.11744973 1 -1
4.9144831 5.3698988 0.12388384 1 -1
4.8758149 5.3844748 0.11410788 1 -1
4.8304477 5.3892918 0.13264281 1 -1
4.7991214 5.4104748 0.12710977 1 -1
4.7639723 5.4415007 0.11906207 1 -1
4.6957998 5.4667411 0.12157801 1 -1
4.6502304 5.494061 0.10849071 1 -1
4.6255178 5.5224695 0.11953288 1 -1
4.5833054 5.5493474 0.11508709 1 -1
4.5494652 5.5864539 0.13214126 1 -1
4.5080714 5.6027703 0.10433283 1 -1
4.4663653 5.6300621 0.099110186 1 -1
4.4335961 5.6632724 0.11575213 1 -1
4.3908777 5.6965604 0.10717475 1 -1
4.3625402 5.7316923 0.13815054 1 -1
4.3228235 5.7628264 0.1174199 1 -1
5.0004001 6.3899188 0.31450403 3 -1
5.037581 6.4714742 0.32368839 3 -1
5.0818009 6.5147691 0.35137293 3 -1
5.0799494 6.5456481 0.34245247 3 -1
5.095233 6.5918131 0.36197278 3 -1
5.1135969 6.60676 0.37473232 3 -1
5.1425915 6.6286011 0.36345023 3 -1
5.1416254 6.6488471 0.39039561 3 -1
5.1388149 6.6824307 0.36807409 3 -1
5.1630855 6.6963596 0.38511083 3 -1
5.1481543 6.7081881 0.39568383 3 -1
5.1523609 6.7307501 0.3844142 3 -1
5.1496372 6.7355924 0.39068481 3 -1
5.1641359 6.7481337 0.37721726 3 -1
5.1583281 6.7435365 0.37704784 3 -1
5.1679616 6.7882967 0.3941519 3 -1
5.1661348 6.8077106 0.3757343 3 -1
5.1707735 6.811296 0.39674807 3 -1
5.1770344 6.8150868 0.39451444 3 -1
5.1921697 6.834166 0.39021257 3 -1
5.1830072 6.8437815 0.3902708 3 -1
5.1860657 6.8574286 0.38551459 3 -1
5.192131 6.8650603 0.41352075 3 -1
5.1850896 6.8858142 0.40303615 3 -1
5.1908269 6.8738251 0.39520413 3 -1
6.3979635 5.2818837 0.1191653 1 -1
6.3494439 5.2695312 0.10633597 1 -1
6.3233771 5.2223287 0.1133475 1 -1
6.2542453 5.228137 0.12227768 1 -1
6.196003 5.201726 0.12359393 1 -1
6.1573067 5.1595726 0.11225846 1 -1
6.0984602 5.164391 0.11983621 1 -1
6.0444026 5.1540747 0.12497026 1 -1
6.0015945 5.128037 0.1059683 1 -1
5.9360819 5.0941734 0.12456012 1 -1
5.9044542 5.101728 0.12564507 1 -1
5.8285356 5.084116 0.12165171 1 -1
5.8005304 5.0846596 0.10962975 1 -1
5.7192292 5.0746055 0.10644546 1 -1
5.6818604 5.0726333 0.11501887 1 -1
5.6012273 5.0684247 0.11495402 1 -1
5.544837 5.0570879 0.12322846 1 -1
5.5142097 5.0628681 0.1062375 1 -1
5.4671097 5.0662661 0.11545318 1 -1
5.4035516 5.0747881 0.10664204 1 -1
5.3364229 5.0712271 0.1161772 1 -1
5.307467 5.0901709 0.11917591 1 -1
5.2292948 5.0894079 0.12291428 1 -1
5.1832733 5.0981674 0.10872123 1 -1
5.1249275 5.0904269 0.11716717 1 -1
5.0572519 5.1195188 0.10267612 1 -1
5.0368304 5.1362734 0.14437008 1 -1
4.9751692 5.168663 0.12984154 1 -1
4.9320574 5.1671667 0.12089658 1 -1
4.8551307 5.1856184 0.14813319 1 -1
4.7976737 5.218833 0.1134733 1 -1
4.7558856 5.2317572 0.12463591 1 -1
4.7000737 5.248168 0.11791649 1 -1
4.665194 5.2658534 0.10983327 1 -1
4.616591 5.3120818 0.12943575 1 -1
4.5632229 5.3463035 0.11671355 1 -1
4.5081768 5.3541989 0.10329023 1 -1
4.4839926 5.3998222 0.10729012 1 -1
4.4535632 5.4352078 0.11364207 1 -1
4.3927283 5.4512277 0.11957213 1 -1
4.326592 5.5070505 0.11891872 1 -1
4.3099647 5.546185 0.10878012 1 -1
4.2636514 5.5660567 0.12994659 1 -1
4.2259455 5.6082726 0.12740424 1 -1
4.2008553 5.6401105 0.10683861 1 -1
4.9952044 6.4086027 0.33728868 3 -1
5.0376124 6.4632988 0.33549511 3 -1
5.0504384 6.4965162 0.34683836 3 -1
5.0972819 6.5685101 0.35180259 3 -1
5.1046209 6.5685458 0.35856616 3 -1
5.1179562 6.6055694 0.38802129 3 -1
5.1136494 6.649838 0.37755239 3 -1
5.12883 6.6525402 0.38233295 3 -1
5.1412973 6.6773534 0.3886385 3 -1
5.1447802 6.6901073 0.39292306 3 -1
5.1586566 6.7028046 0.39271572 3 -1
5.1357555 6.7167788 0.37654102 3 -1
5.1587911 6.7441883 0.39903313 3 -1
5.1627951 6.7415853 0.40628397 3 -1
5.1511769 6.7731066 0.40169325 3 -1
5.167954 6.7659025 0.4001295 3 -1
5.1954947 6.7962494 0.39756218 3 -1
5.1688423 6.8073392 0.40040058 3 -1
5.1756492 6.8153009 0.40572703 3 -1
5.1958981 6.821918 0.39387429 3 -1
5.1932502 6.8227439 0.38202807 3 -1
5.180428 6.8616557 0.39957371 3 -1
5.1828723 6.8482919 0.41436949 3 -1
5.1995897 6.8666053 0.40739068 3 -1
5.1908956 6.8809266 0.41906643 3 -1
6.5110159 5.0930772 0.11984175 1 -1
6.447628 5.0601311 0.12927011 1 -1
6.3923025 5.0296469 0.10489863 1 -1
6.3432693 5.0049953 0.12418362 1 -1
6.2949028 4.9539051 0.12373963 1 -1
6.2125001 4.9601111 0.11269948 1 -1
6.1585569 4.9521227 0.13653448 1 -1
6.108541 4.9237638 0.12777597 1 -1
6.0640125 4.8965034 0.12094903 1 -1
5.9990196 4.8981009 0.11628664 1 -1
5.9281764 4.8768539 0.12425756 1 -1
5.8539629 4.8708963 0.13234609 1 -1
5.8032932 4.8687077 0.13313919 1 -1
5.7507505 4.8601704 0.1164079 1 -1
5.6883345 4.8527899 0.13602862 1 -1
5.6236854 4.8510942 0.12803769 1 -1
5.5628176 4.8351088 0.13495198 1 -1
5.4905086 4.8548012 0.1290493 1 -1
5.4478974 4.8466339 0.12230459 1 -1
5.3690066 4.8556609 0.12204289 1 -1
5.3182182 4.838047 0.12984148 1 -1
5.2521739 4.8690825 0.11992586 1 -1
5.198216 4.8903008 0.12639672 1 -1
5.1379261 4.8781929 0.13582748 1 -1
5.0847816 4.9179258 0.10343295 1 -1
5.0166907 4.9471316 0.13207561 1 -1
4.9685488 4.9544473 0.13039762 1 -1
4.8984928 4.9676275 0.12846932 1 -1
4.8492746 4.9845495 0.12515396 1 -1
4.7758479 5.0114012 0.099527806 1 -1
4.7158513 5.0021644 0.10726056 1 -1
4.6733956 5.0390406 0.1189875 1 -1
4.6099625 5.0842991 0.13194159 1 -1
4.5671339 5.1127582 0.12615442 1 -1
4.5285211 5.1196728 0.11657214 1 -1
4.4530811 5.149826 0.12915441 1 -1
4.416791 5.1999502 0.12004897 1 -1
4.3615084 5.2208452 0.12068963 1 -1
4.3019629 5.2698212 0.12546962 1 -1
4.2659492 5.2957735 0.12821925 1 -1
4.1886034 5.324398 0.09712714 1 -1
4.1441588 5.387445 0.12625274 1 -1
4.1175075 5.4160476 0.11966136 1 -1
4.0632668 5.4544053 0.11139038 1 -1
4.0307941 5.5166311 0.13476613 1 -1
4.9824047 6.4123287 0.34968483 3 -1
5.0311966 6.4639206 0.36390692 3 -1
5.0652351 6.5273042 0.36843932 3 -1
5.1024423 6.5580287 0.37922412 3 -1
5.0896573 6.5732889 0.37585592 3 -1
5.0974021 6.6035719 0.38598612 3 -1
5.1232743 6.6297998 0.38492686 3 -1
5.1247621 6.6507883 0.38504153 3 -1
5.1340961 6.6844597 0.39795452 3 -1
5.1550822 6.7050323 0.40442306 3 -1
5.1676016 6.7076159 0.39072728 3 -1
5.1640534 6.712585 0.40426475 3 -1
5.1265216 6.7364388 0.39142719 3 -1
5.1634893 6.7524118 0.3959192 3 -1
5.1551156 6.7572618 0.40383902 3 -1
5.1746955 6.778789 0.39659172 3 -1
5.177515 6.7877541 0.4025436 3 -1
5.1629548 6.7931538 0.39569581 3 -1
5.1778312 6.8196378 0.41257903 3 -1
5.2029324 6.8385139 0.41380101 3 -1
5.1889105 6.8286195 0.40598813 3 -1
5.1982169 6.8559709 0.41527376 3 -1
5.1800942 6.8557186 0.39736906 3 -1
5.188261 6.8614578 0.40295136 3 -1
5.194984 6.8708639 0.40013534 3 -1
6.6353221 4.8430243 0.11879063 1 -1
6.5649242 4.8254528 0.1351862 1 -1
6.4972506 4.7852802 0.13006446 1 -1
6.4459715 4.7579546 0.14042339 1 -1
6.3867621 4.7238092 0.11680076 1 -1
6.3347878 4.7130971 0.14179808 1 -1
6.2505641 4.6727638 0.11084318 1 -1
6.1909957 4.6436267 0.12776509 1 -1
6.1254749 4.6389151 0.11662307 1 -1
6.0532365 4.6143188 0.11524183 1 -1
5.9859719 4.583292 0.12406498 1 -1
5.9027023 4.5936699 0.12791213 1 -1
5.8551574 4.5858955 0.11646768 1 -1
5.7876453 4.5958962 0.11441773 1 -1
5.6729469 4.560174 0.13944423 1 -1
5.6465025 4.5681543 0.13740501 1 -1
5.5772467 4.5815573 0.12277442 1 -1
5.500351 4.5824389 0.13292173 1 -1
5.4484029 4.6352291 0.14678121 1 -1
5.3702683 4.7076659 0.14801738 1 -1
5.3002739 4.7509127 0.15991631 3 -1
5.25809 4.8075342 0.16001418 3 -1
5.185523 4.8562527 0.18754384 3 -1
5.1278944 4.8830242 0.16948527 3 -1
5.0761762 4.9133253 0.15667194 1 -1
5.0239801 4.9524131 0.17193642 1 -1
4.9661789 4.9729114 0.17387396 1 -1
4.9152732 4.9861279 0.16749024 1 -1
4.8440309 4.991776 0.17404589 1 -1
4.7654943 4.9902878 0.17320293 1 -1
4.7254801 5.008996 0.17450207 1 -1
4.660675 5.0370169 0.15747562 1 -1
4.5898838 4.9994349 0.14444166 1 -1
4.4955878 4.9896851 0.14097735 1 -1
4.4250236 4.9958868 0.12473932 1 -1
4.3313422 4.9556742 0.12799037 1 -1
4.2534218 4.9633002 0.12735167 1 -1
4.1924539 5.0022898 0.11648735 1 -1
4.1352358 5.0469942 0.13438046 1 -1
4.0840716 5.0704417 0.12680167 1 -1
4.0260396 5.1228523 0.1219689 1 -1
3.9832373 5.1650419 0.12834671 1 -1
3.9105101 5.2229719 0.11218101 1 -1
3.8699954 5.2740359 0.13866475 1 -1
3.8223076 5.3431072 0.11079273 1 -1
5.0008211 6.3739381 0.3709037 3 -1
5.0217433 6.483088 0.37464103 3 -1
5.0759358 6.5252533 0.3764385 3 -1
5.060359 6.576313 0.39586058 3 -1
5.1119022 6.5903316 0.3882015 3 -1
5.1168866 6.6102219 0.39239544 3 -1
5.116888 6.6527209 0.3965804 3 -1
5.1174426 6.6533117 0.3969062 3 -1
5.1382475 6.6740494 0.39688462 3 -1
5.1460624 6.6927462 0.41394642 3 -1
5.1637564 6.6986094 0.41190505 3 -1
5.1321464 6.7197714 0.40983671 3 -1
5.1516891 6.7416506 0.39774156 3 -1
5.1618505 6.7430058 0.42025888 3 -1
5.1583996 6.7693548 0.41191003 3 -1
5.1619263 6.7827468 0.39302737 3 -1
5.1801896 6.7991376 0.41311723 3 -1
5.1783466 6.8139949 0.43355909 3 -1
5.1820307 6.8218794 0.40650332 3 -1
5.1825762 6.807725 0.41941264 3 -1
5.1889138 6.8426948 0.41796932 3 -1
5.1953707 6.8246741 0.42711756 3 -1
5.1860652 6.8710232 0.42109028 3 -1
5.2088099 6.8601861 0.39621434 3 -1
5.1900005 6.8624401 0.41362134 3 -1
6.8232126 4.5274086 0.12176418 1 -1
6.7416139 4.5107279 0.12178671 1 -1
6.6884546 4.4653649 0.13663575 1 -1
6.5962133 4.4377642 0.14681515 1 -1
6.5253401 4.4108257 0.11973253 1 -1
6.4553804 4.3478336 0.13255981 1 -1
6.3669572 4.3268981 0.14314249 1 -1
6.2869992 4.3281736 0.14121765 1 -1
6.2306213 4.289856 0.12236223 1 -1
6.1371608 4.2714195 0.11767328 1 -1
6.0534906 4.2580223 0.11730671 1 -1
5.9753222 4.238091 0.11652759 1 -1
5.9022288 4.2381239 0.13824132 1 -1
5.793663 4.2233591 0.12632242 1 -1
5.731451 4.2133198 0.11339182 1 -1
5.6665034 4.2016401 0.12743452 1 -1
5.5716052 4.3899317 0.15327999 1 -1
5.4886541 4.5240402 0.17301062 1 -1
5.4240675 4.6267948 0.20376635 3 -1
5.3611827 4.7100506 0.19403997 3 -1
5.3072529 4.7618551 0.21741658 3 -1
5.2503734 4.8114038 0.20559233 3 -1
5.202507 4.8457303 0.20633075 3 -1
5.1302962 4.8777733 0.22109818 3 -1
5.0849233 4.9266348 0.21465594 3 -1
5.0182076 4.9394488 0.20877004 3 -1
4.9794278 4.9586363 0.20925233 3 -1
4.9196143 4.9673514 0.23179305 3 -1
4.8514667 5.0130129 0.19348323 1 -1
4.7783213 4.9985456 0.19856006 3 -1
4.7344675 4.9880309 0.19395161 3 -1
4.6529479 5.0120258 0.20328811 3 -1
4.5854187 4.9988203 0.20897001 3 -1
4.5259104 4.9967575 0.17670566 3 -1
4.4154844 4.9680157 0.18415707 3 -1
4.352097 4.9562173 0.19849825 3 -1
4.2230992 4.9263196 0.17128956 3 -1
4.0663481 4.830883 0.14352396 3 -1
3.9117422 4.7613192 0.14160088 1 -1
3.8561192 4.8099999 0.13146645 1 -1
3.814013 4.8501048 0.12994528 1 -1
3.7421989 4.9138923 0.13954946 1 -1
3.6832099 4.9580374 0.11979559 1 -1
3.6160436 5.0321856 0.1083627 1 -1
3.5621319 5.0939236 0.1271542 1 -1
4.982388 6.4007244 0.36575541 3 -1
5.0371203 6.4886575 0.39128447 3 -1
5.061913 6.5101995 0.39051571 3 -1
5.1013918 6.5527835 0.39128816 3 -1
5.1010313 6.5805306 0.40649894 3 -1
5.1169786 6.6062837 0.41285193 3 -1
5.124506 6.6215706 0.42314452 3 -1
5.1326728 6.6646008 0.40203124 3 -1
5.1353655 6.670589 0.41376677 3 -1
5.130445 6.6901159 0.41533417 3 -1
5.1379099 6.707623 0.40613538 3 -1
5.1455517 6.7292805 0.41122174 3 -1
5.1658478 6.7335343 0.41847235 3 -1
5.1577287 6.7540202 0.43432802 3 -1
5.1629734 6.7669606 0.43570313 3 -1
5.1407027 6.7806325 0.4213787 3 -1
5.155849 6.789608 0.41806355 3 -1
5.1742425 6.8199024 0.41538832 3 -1
5.1733465 6.8149333 0.43123472 3 -1
5.1862431 6.8217473 0.41381434 3 -1
5.1778674 6.8384614 0.44781733 3 -1
5.1929545 6.8227649 0.4089101 3 -1
5.1733336 6.8582406 0.41918045 3 -1
5.1936436 6.8573422 0.44904569 3 -1
5.185195 6.8699355 0.43083915 3 -1
7.050406 4.0949011 0.12360698 1 -1
6.9758568 4.0613012 0.13959023 1 -1
6.8936276 4.0010786 0.14276546 1 -1
6.8149567 3.9744036 0.12946999 1 -1
6.6964216 3.9221947 0.12261358 1 -1
6.6171336 3.8979177 0.1449278 1 -1
6.5379009 3.8747494 0.12329265 1 -1
6.4470983 3.8274021 0.13988474 1 -1
6.3376546 3.828186 0.14112365 1 -1
6.2320642 3.7932217 0.13572297 1 -1
6.1673813 3.7814212 0.13996652 1 -1
6.0633397 3.7619801 0.14826226 1 -1
5.9640994 3.7511861 0.11843678 1 -1
5.8657908 3.7099385 0.13389325 1 -1
5.7681503 3.7255239 0.1434041 1 -1
5.6856866 3.7227459 0.11480236 1 -1
5.5619473 4.3882751 0.18653375 3 -1
5.5061321 4.5328732 0.20931503 3 -1
5.4295402 4.6424122 0.23262517 3 -1
5.3560362 4.7056456 0.23243859 3 -1
5.3105426 4.7522354 0.23969787 3 -1
5.2489405 4.815176 0.26399332 3 -1
5.187305 4.8508158 0.25070906 3 -1
5.1382365 4.8700113 0.25933808 3 -1
5.0746064 4.9125829 0.24718966 3 -1
5.0209236 4.9196229 0.24632873 3 -1
4.9712582 4.939702 0.25347644 3 -1
4.9081259 4.968936 0.26821625 3 -1
4.837502 4.9912939 0.25155401 3 -1
4.7932091 4.9947786 0.25403699 3 -1
4.7190886 5.0084929 0.27522004 3 -1
4.6475701 5.0033088 0.24945998 3 -1
4.5764432 5.0087533 0.2498538 3 -1
4.5347652 4.9954419 0.23620737 3 -1
4.4159446 4.9942827 0.24289043 3 -1
4.3398161 4.9721718 0.23594168 3 -1
4.2187486 4.9114656 0.21547407 3 -1
4.0724125 4.82476 0.20713779 3 -1
3.6260018 4.362371 0.13476864 1 -1
3.547287 4.4310751 0.13191476 1 -1
3.4776762 4.483604 0.13213089 1 -1
3.428303 4.540638 0.12051189 1 -1
3.3279555 4.6001668 0.13243121 1 -1
3.2646222 4.6758256 0.14371747 1 -1
3.2158275 4.7621355 0.14875892 1 -1
4.9873919 6.3908434 0.37972921 3 -1
5.0326982 6.4738383 0.40279114 3 -1
5.0698986 6.5289574 0.41989639 3 -1
5.078217 6.5605664 0.40398407 3 -1
5.0971594 6.5781679 0.42264944 3 -1
5.1088252 6.6280003 0.41387331 3 -1
5.1158571 6.6403985 0.39739749 3 -1
5.1284189 6.6487975 0.43681213 3 -1
5.1311641 6.6653953 0.4357594 3 -1
5.1317873 6.6784277 0.45072049 3 -1
5.1425543 6.6947284 0.42116237 3 -1
5.174314 6.7323575 0.4277696 3 -1
5.1633334 6.7118769 0.43902874 3 -1
5.1636829 6.7352366 0.41918892 3 -1
5.1530814 6.7734871 0.43346307 3 -1
5.172749 6.7832556 0.42404386 3 -1
5.1762805 6.7806253 0.41561398 3 -1
5.190187 6.8161077 0.43693718 3 -1
5.1710906 6.8272943 0.43583521 3 -1
5.1730213 6.8467517 0.42250043 3 -1
5.169692 6.8505759 0.43348685 3 -1
5.1859012 6.8472729 0.40923536 3 -1
5.1819572 6.8459291 0.44135749 3 -1
5.1780095 6.8462687 0.41038081 3 -1
5.1892281 6.8798676 0.44322696 3 -1
7.0574946 4.1258998 0.21078128 2 -1
7.0339017 3.9125385 0.17179722 2 -1
7.029882 3.6660545 0.16803661 2 -1
7.0331597 3.4321415 0.16870365 2 -1
6.9809933 3.2704098 0.15320417 1 -1
6.8731489 3.2438371 0.12947619 1 -1
6.7492385 3.1972392 0.14299193 1 -1
6.6443434 3.1445086 0.13233197 1 -1
6.5405054 3.1406846 0.12110487 1 -1
6.3981261 3.1224737 0.13198194 1 -1
6.3043065 3.0735998 0.14173201 1 -1
6.1784978 3.0523019 0.14087486 1 -1
6.0768189 3.0411842 0.14855579 1 -1
5.9534855 3.0164144 0.14821669 1 -1
5.8468232 3.0104802 0.15512386 1 -1
5.7103219 3.0005763 0.15009049 1 -1
5.5631371 4.3805504 0.24641837 3 -1
5.5006852 4.5253754 0.28027886 3 -1
5.4346099 4.6443987 0.28142971 3 -1
5.3658609 4.6987953 0.2837761 3 -1
5.3098483 4.7572889 0.28738028 3 -1
5.258225 4.8120718 0.27795047 3 -1
5.1897721 4.868227 0.31041563 3 -1
5.1344981 4.871954 0.29446936 3 -1
5.0805764 4.9126024 0.29238465 3 -1
5.0144291 4.9441009 0.29539075 3 -1
4.9547033 4.9574556 0.31238157 3 -1
4.9177928 4.9875526 0.2950401 3 -1
4.8535833 4.984231 0.29793295 3 -1
4.793263 5.0027103 0.29844716 3 -1
4.7416353 5.016118 0.29246473 3 -1
4.6567459 5.0120025 0.2947644 3 -1
4.5704904 5.0225554 0.29159385 3 -1
4.5089593 5.0088716 0.2956723 3 -1
4.4092045 4.9634051 0.27242759 3 -1
4.3253064 4.96843 0.2930772 3 -1
4.2069602 4.9312801 0.27278769 3 -1
4.0734777 4.8279915 0.25457576 3 -1
3.2040801 3.7987721 0.14559025 1 -1
3.1080294 3.8852258 0.1435551 1 -1
3.0017505 3.927763 0.1455335 1 -1
2.9441979 4.029963 0.13204348 1 -1
2.8465624 4.1034107 0.13762993 1 -1
2.7699871 4.1962843 0.13357112 1 -1
2.6873422 4.2887325 0.14349154 1 -1
4.9830298 6.4044633 0.39385286 3 -1
5.0340948 6.4714727 0.42865786 3 -1
5.0705996 6.5208688 0.42379999 3 -1
5.078167 6.5455456 0.41311181 3 -1
5.1032176 6.5715513 0.4229387 3 -1
5.1074181 6.6230268 0.427982 3 -1
5.1228309 6.6239705 0.45011175 3 -1
5.1263342 6.6498737 0.43921232 3 -1
5.1266794 6.6754537 0.43890262 3 -1
5.1349945 6.704381 0.4466942 3 -1
5.142405 6.7034354 0.42363286 3 -1
5.1520796 6.7225623 0.44496101 3 -1
5.1585736 6.7371101 0.43445808 3 -1
5.1494021 6.75248 0.42650414 3 -1
5.1653504 6.7692184 0.43343937 3 -1
5.1564817 6.7822795 0.41861984 3 -1
5.1650271 6.7851796 0.44595534 3 -1
5.175437 6.7989936 0.42623472 3 -1
5.1861711 6.7996855 0.44586301 3 -1
5.1938028 6.8337131 0.44573024 3 -1
5.1933575 6.8409133 0.44620028 3 -1
5.18152 6.8345218 0.43386102 3 -1
5.1665998 6.8518252 0.45146561 3 -1
5.1836538 6.8423066 0.43532646 3 -1
5.1992283 6.8813829 0.44071805 3 -1
7.0315552 4.1248178 0.26231685 2 -1
7.0430131 3.8851745 0.25008553 2 -1
7.0534234 3.701602 0.25817865 2 -1
7.037065 3.4297662 0.22123206 2 -1
7.0159817 3.1407189 0.19288364 2 -1
7.020051 2.7895393 0.17834476 2 -1
7.0252223 2.399014 0.1537784 2 -1
6.9642606 2.0828662 0.14018407 1 -1
6.8332043 2.0511651 0.15115055 1 -1
6.6785464 1.9857059 0.15407541 1 -1
6.5274377 1.962769 0.15782991 1 -1
6.3685017 1.9496017 0.14688057 1 -1
6.2232327 1.9375019 0.14867216 1 -1
6.0543213 2.0235119 0.17173967 1 -1
5.9107456 2.1352797 0.17271584 1 -1
5.7583976 2.190917 0.18089816 1 -1
5.5820208 4.3840771 0.30813831 3 -1
5.5123653 4.5230031 0.33009392 3 -1
5.422668 4.6518764 0.32463419 3 -1
5.3625159 4.6876497 0.34514478 3 -1
5.3196936 4.7665415 0.33504373 3 -1
5.2187276 4.815258 0.3447054 3 -1
5.1868038 4.8478589 0.33746177 3 -1
5.1446939 4.8954787 0.34533596 3 -1
5.0885725 4.9121065 0.34874249 3 -1
5.0265284 4.9281173 0.3334589 3 -1
4.9495578 4.9638329 0.344064 3 -1
4.9132347 4.9727464 0.34859711 3 -1
4.8269138 4.9997759 0.33449399 3 -1
4.7933302 5.0024533 0.3473177 3 -1
4.7259665 4.9943275 0.32679552 3 -1
4.6533513 5.0257025 0.33627355 3 -1
4.5685048 5.0284739 0.33346587 3 -1
4.503777 5.0031447 0.34596169 3 -1
4.4341569 4.9784813 0.31084251 3 -1
4.3184371 4.9556131 0.32053202 3 -1
4.2137003 4.9223051 0.3233155 3 -1
4.0740094 4.8358116 0.3170172 3 -1
2.5557623 2.9580016 0.16420725 3 -1
2.4176924 3.0069041 0.12758565 1 -1
2.3110523 3.1213324 0.14078009 1 -1
2.1904743 3.2205095 0.14591023 1 -1
2.0839663 3.3099127 0.15578672 1 -1
1.961195 3.4255438 0.15726152 1 -1
1.8658717 3.5335603 0.16682425 1 -1
4.9811907 6.4092207 0.42854041 3 -1
5.027626 6.4874463 0.443207 3 -1
5.0725689 6.5310926 0.44022837 3 -1
5.0636125 6.5608835 0.42454264 3 -1
5.0928593 6.5966191 0.4415777 3 -1
5.110075 6.5907779 0.44897869 3 -1
5.1243219 6.6134357 0.447016 3 -1
5.1271439 6.6709981 0.43242452 3 -1
5.1524186 6.6715078 0.43784392 3 -1
5.1488967 6.690608 0.44422692 3 -1
5.131424 6.7033973 0.43413889 3 -1
5.1338005 6.727962 0.44318986 3 -1
5.1602411 6.7489948 0.44076076 3 -1
5.151639 6.7621074 0.42977491 3 -1
5.1608052 6.752748 0.44562584 3 -1
5.1768994 6.763917 0.45175543 3 -1
5.1567779 6.7809443 0.44306022 3 -1
5.1869926 6.7954755 0.45205393 3 -1
5.1792488 6.8220029 0.46738702 3 -1
5.1680875 6.8352714 0.43945584 3 -1
5.1857147 6.8551526 0.45763615 3 -1
5.1675572 6.8370996 0.45633823 3 -1
5.1693568 6.8624382 0.45735219 3 -1
5.1822243 6.8573928 0.43710202 3 -1
5.1746483 6.8648725 0.43568128 3 -1
7.0552287 4.1238084 0.33996168 2 -1
7.0370941 3.9030612 0.33735317 2 -1
7.0440054 3.6701267 0.31500041 2 -1
7.0357327 3.4207978 0.31336057 2 -1
7.0319481 3.1530364 0.3169027 2 -1
7.0200272 2.7963095 0.27929336 2 -1
7.0266647 2.4031034 0.27240276 2 -1
7.005847 1.9555092 0.26519504 2 -1
7.0151763 1.3950181 0.25345591 2 -1
6.2372918 1.7612338 0.25910926 3 -1
6.0662689 2.0267282 0.26147875 3 -1
5.9002924 2.102006 0.28021336 3 -1
5.7606988 2.1730318 0.25348681 3 -1
5.5680785 4.3755484 0.37924546 3 -1
5.4965644 4.538022 0.36668122 3 -1
5.4422388 4.6173363 0.38221341 3 -1
5.3678803 4.7127724 0.38156125 3 -1
5.2951965 4.7625284 0.37383884 3 -1
5.262619 4.8166523 0.38108322 3 -1
5.2041569 4.8401051 0.38846013 3 -1
5.1248894 4.879498 0.38392168 3 -1
5.0982857 4.900548 0.37676436 3 -1
5.0200319 4.9291468 0.39274994 3 -1
4.9867635 4.9634976 0.36992508 3 -1
4.9161649 4.9775639 0.37344751 3 -1
4.8580503 4.9931707 0.37595469 3 -1
4.7950454 4.9927959 0.39398485 3 -1
4.745153 5.0176764 0.39304602 3 -1
4.6585875 5.0122218 0.38420928 3 -1
4.5996141 5.0024295 0.36620316 3 -1
4.5190701 4.9983673 0.3699809 3 -1
4.4198527 5.0009775 0.39251295 3 -1
4.3239908 4.9523864 0.38141102 3 -1
4.2192001 4.9242291 0.37756217 3 -1
4.0658727 4.828548 0.35718673 3 -1
2.5561211 2.9417233 0.27430338 3 -1
2.4083774 3.0005889 0.25893241 3 -1
2.2591107 3.0515244 0.25606322 3 -1
2.0570259 3.0590494 0.24300624 3 -1
1.7734807 3.0047266 0.25433302 3 -1
4.9895296 6.4106932 0.43758482 3 -1
5.0173988 6.4817309 0.45319301 3 -1
5.0565133 6.5203257 0.46047679 3 -1
5.089951 6.5544777 0.43716875 3 -1
5.1137881 6.59515 0.4389438 3 -1
5.1148129 6.6087356 0.45486927 3 -1
5.1357183 6.6366863 0.46460873 3 -1
5.1308727 6.6477709 0.44795698 3 -1
5.1462688 6.6778708 0.45156378 3 -1
5.1236811 6.6963558 0.46656889 3 -1
5.1522403 6.6854134 0.45611888 3 -1
5.1455798 6.7242904 0.47245103 3 -1
5.1729989 6.7535443 0.43918571 3 -1
5.1519542 6.7583966 0.45393938 3 -1
5.1524429 6.765152 0.44903257 3 -1
5.1666937 6.7851372 0.45510924 3 -1
5.1831956 6.7933149 0.45042354 3 -1
5.1617551 6.7954884 0.45845196 3 -1
5.1886845 6.8164072 0.45656812 3 -1
5.1787581 6.8163667 0.463653 3 -1
5.1675181 6.8279448 0.46282449 3 -1
5.1900959 6.8433251 0.45188907 3 -1
5.1833057 6.8550196 0.47896078 3 -1
5.1666698 6.8669257 0.46827376 3 -1
5.1892877 6.8861256 0.43134296 3 -1
7.0404062 4.1075611 0.40494403 2 -1
7.0261655 3.8887594 0.40261939 2 -1
7.0326285 3.6791894 0.38846618 2 -1
7.0676832 3.4142039 0.37950289 2 -1
7.0330048 3.1350911 0.38809559 2 -1
7.0227823 2.8120184 0.38633212 2 -1
7.0140886 2.3991046 0.3793143 2 -1
7.0133276 1.9442244 0.36995888 2 -1
6.9964414 1.3738294 0.35887107 2 -1
6.2536092 1.7523785 0.38164845 3 -1
6.0709381 2.0192904 0.35896838 3 -1
5.9044714 2.1233807 0.36823717 3 -1
5.7678452 2.1757503 0.36583093 3 -1
5.5645323 4.3954277 0.41106749 3 -1
5.4908895 4.537056 0.41312733 3 -1
5.4364266 4.6374226 0.41804212 3 -1
5.3664894 4.6912365 0.43526906 3 -1
5.3120708 4.7486887 0.43586174 3 -1
5.235343 4.8154516 0.40885133 3 -1
5.1811771 4.842988 0.42345166 3 -1
5.1312628 4.8806863 0.42419642 3 -1
5.0765433 4.9105496 0.43230325 3 -1
5.0307813 4.9453716 0.42501825 3 -1
4.9675441 4.9642739 0.41768658 3 -1
4.9064159 4.9812789 0.43738559 3 -1
4.8439798 4.9980354 0.41011092 3 -1
4.7915707 4.9998164 0.40353796 3 -1
4.7197099 5.0024033 0.43943062 3 -1
4.6464162 5.015317 0.44385657 3 -1
4.5839019 5.0016875 0.42134017 3 -1
4.4984531 5.0070562 0.44103053 3 -1
4.4197288 4.9963446 0.43323424 3 -1
4.3422241 4.9575438 0.40622407 3 -1
4.2312307 4.916122 0.42993647 3 -1
4.067596 4.8369808 0.42628443 3 -1
2.5537744 2.9469347 0.3718372 3 -1
2.4129548 2.9875507 0.36415058 3 -1
2.2555168 3.0484567 0.34423974 3 -1
2.0460434 3.0601382 0.36265707 3 -1
1.786551 2.9937134 0.36000603 3 -1
4.9835672 6.4066415 0.45648283 3 -1
5.0337315 6.4735565 0.46902284 3 -1
5.0637584 6.5161834 0.46607506 3 -1
5.093821 6.5526862 0.47357497 3 -1
5.09762 6.5757303 0.44624981 3 -1
5.0961051 6.6101341 0.46873742 3 -1
5.1229167 6.6239991 0.4546746 3 -1
5.1305385 6.6679525 0.46393177 3 -1
5.14642 6.6584702 0.45264229 3 -1
5.1411161 6.7001238 0.44480327 3 -1
5.1597581 6.6999259 0.48635444 3 -1
5.1457267 6.7279911 0.45799875 3 -1
5.1617188 6.7401156 0.4520807 3 -1
5.1450772 6.7564869 0.46560818 3 -1
5.1791754 6.7585979 0.45789933 3 -1
5.1634364 6.7794075 0.44213223 3 -1
5.1732874 6.7830968 0.45766774 3 -1
5.1751485 6.794282 0.45458129 3 -1
5.1780896 6.836556 0.46556276 3 -1
5.2009187 6.8275843 0.47048694 3 -1
5.1924071 6.8440557 0.47713023 3 -1
5.183188 6.8596611 0.47212189 3 -1
5.1890135 6.868989 0.44961926 3 -1
5.1925206 6.8739843 0.46137804 3 -1
5.1915312 6.8616428 0.47770327 3 -1
7.0398178 4.1132889 0.47897869 2 -1
7.0401211 3.9078372 0.45228276 2 -1
7.0547333 3.6820006 0.45263046 2 -1
7.024744 3.4352908 0.46475208 2 -1
7.0404482 3.1353171 0.47129625 2 -1
7.0261831 2.7976203 0.49408579 2 -1
7.0148411 2.4168558 0.48407006 2 -1
7.0197783 1.9475999 0.47182196 2 -1
6.9957271 1.3702106 0.47974822 2 -1
6.2607212 1.7517037 0.47022775 3 -1
6.082644 2.0390592 0.47021592 3 -1
5.9068828 2.1263409 0.45793036 3 -1
5.7553997 2.1808739 0.46048412 3 -1
5.5695453 4.3867826 0.45907944 3 -1
5.5011678 4.5343423 0.44770685 3 -1
5.4298611 4.6186833 0.47373977 3 -1
5.3622475 4.6918879 0.46782672 3 -1
5.3287864 4.7716484 0.46614653 3 -1
5.2576542 4.7987442 0.47761554 3 -1
5.1955323 4.8504272 0.46833313 3 -1
5.1356316 4.9178886 0.45734647 3 -1
5.0826592 4.9222212 0.46759552 3 -1
5.0368223 4.9441032 0.46789989 3 -1
4.972074 4.9698811 0.46368143 3 -1
4.897161 4.985404 0.47886086 3 -1
4.8630891 4.9916234 0.48635995 3 -1
4.7767477 5.0083709 0.45347437 3 -1
4.7170534 4.9990993 0.48433515 3 -1
4.6637897 5.0276408 0.4686915 3 -1
4.5822883 5.0215683 0.45607987 3 -1
4.5176382 5.0105367 0.47182092 3 -1
4.4328194 4.9967017 0.48939419 3 -1
4.3451948 4.9716358 0.46593451 3 -1
4.2205505 4.9092107 0.4858433 3 -1
4.0726333 4.8331032 0.46608689 3 -1
2.5621982 2.9394956 0.47694632 3 -1
2.4152799 3.0389271 0.45989123 3 -1
2.2422037 3.0510299 0.47598514 3 -1
2.0552771 3.0643389 0.48327646 3 -1
1.7922399 2.9891181 0.47738388 3 -1
4.998826 6.4232225 0.47696361 3 -1
5.0314083 6.467545 0.46140179 3 -1
5.051671 6.5244584 0.45831805 3 -1
5.0650411 6.5607243 0.46798861 3 -1
5.1121874 6.5877838 0.46035343 3 -1
5.1103883 6.626811 0.46502101 3 -1
5.1209087 6.6195345 0.47481269 3 -1
5.1297479 6.6534748 0.4741146 3 -1
5.1357079 6.6548533 0.4634808 3 -1
5.1144471 6.697506 0.48460463 3 -1
5.1396279 6.7155313 0.46872455 3 -1
5.1465712 6.7289147 0.4704614 3 -1
5.1624389 6.7510772 0.45781791 3 -1
5.1590815 6.7597752 0.48890844 3 -1
5.1702871 6.7681699 0.47189716 3 -1
5.161983 6.7777128 0.46532294 3 -1
5.1696124 6.7905169 0.47737804 3 -1
5.1701083 6.8013415 0.46564659 3 -1
5.1716018 6.8128691 0.46558061 3 -1
5.172338 6.8279257 0.46004209 3 -1
5.1916952 6.8444605 0.47806105 3 -1
5.1925368 6.8281345 0.45692357 3 -1
5.1823058 6.8362579 0.46042603 3 -1
5.1887698 6.8437557 0.4644565 3 -1
5.1700082 6.8695874 0.47997153 3 -1
7.0408459 4.1270199 0.54212725 2 -1
7.0333037 3.9257905 0.53218573 2 -1
7.0393667 3.6843863 0.54913539 2 -1
7.0481896 3.4187443 0.56856418 2 -1
7.0456862 3.156275 0.5722912 2 -1
7.0484591 2.8099933 0.5679158 2 -1
7.008203 2.4095821 0.56851763 2 -1
6.996295 1.9483438 0.5861572 2 -1
6.9829888 1.3841562 0.60558152 2 -1
6.2431631 1.7733264 0.56929725 3 -1
6.0546985 2.0218372 0.56178075 3 -1
5.9034252 2.1286931 0.57077849 3 -1
5.7556448 2.1774936 0.56250983 3 -1
5.5802503 4.3869839 0.51867485 3 -1
5.4957476 4.5371113 0.52863282 3 -1
5.4372988 4.628808 0.52055949 3 -1
5.3619094 4.7044735 0.50303543 3 -1
5.309937 4.7745571 0.52247798 3 -1
5.2489686 4.8143263 0.5220958 3 -1
5.1876783 4.8725705 0.53081006 3 -1
5.1332145 4.8931842 0.52818078 3 -1
5.0885043 4.9149675 0.50741816 3 -1
5.025794 4.9575334 0.51371825 3 -1
4.9744387 4.9412904 0.50990599 3 -1
4.9097319 4.9600878 0.52385831 3 -1
4.8502698 4.9915576 0.51638371 3 -1
4.7752504 4.9986558 0.51118988 3 -1
4.7252173 5.0223317 0.50241333 3 -1
4.6553249 5.0059261 0.52904272 3 -1
4.5825973 4.9992638 0.52521402 3 -1
4.513505 4.9982553 0.52782089 3 -1
4.4459176 4.9827037 0.52816236 3 -1
4.3467569 4.9648676 0.52353263 3 -1
4.2174244 4.9149928 0.50948495 3 -1
4.0658154 4.8367815 0.53667915 3 -1
2.5656631 2.9536214 0.58036149 3 -1
2.4141488 3.0169632 0.58946759 3 -1
2.2490261 3.0614831 0.5735538 3 -1
2.0432589 3.068604 0.57640165 3 -1
1.7688477 3.0226851 0.57841015 3 -1
4.9905519 6.4180398 0.47441202 3 -1
5.0260677 6.4668002 0.4712832 3 -1
5.0527258 6.5073652 0.48093125 3 -1
5.0771284 6.5449271 0.48387271 3 -1
5.1087003 6.5980282 0.49397692 3 -1
5.1111183 6.6154418 0.47139686 3 -1
5.1155491 6.6413975 0.48922706 3 -1
5.1302314 6.6462908 0.48470128 3 -1
5.1410999 6.6739855 0.47253719 3 -1
5.1255884 6.693254 0.49172327 3 -1
5.145709 6.6892757 0.46446493 3 -1
5.1485023 6.7203794 0.48435134 3 -1
5.1634068 6.7394295 0.46993083 3 -1
5.151649 6.7387533 0.48442072 3 -1
5.1767259 6.7472754 0.48120788 3 -1
5.1776643 6.765151 0.46975857 3 -1
5.175055 6.798522 0.47085062 3 -1
5.1847792 6.7921658 0.47290155 3 -1
5.1732779 6.8374863 0.47855458 3 -1
5.1628551 6.827095 0.46050873 3 -1
5.1780224 6.8267846 0.48452103 3 -1
5.1753192 6.840796 0.46087298 3 -1
5.1864634 6.8448462 0.48098156 3 -1
5.1858802 6.8586259 0.49365315 3 -1
5.1970925 6.8755431 0.47656336 3 -1
7.0409479 4.1251826 0.60483539 2 -1
7.0476379 3.9231942 0.61402375 2 -1
7.0686073 3.6872001 0.6404618 2 -1
7.048624 3.4253793 0.62215787 2 -1
7.0134006 3.1364961 0.63642555 2 -1
7.0273046 2.7879405 0.64854729 2 -1
7.0200768 2.4079762 0.66347075 2 -1
7.0005875 1.9600554 0.68194139 2 -1
6.9930849 1.382648 0.72204763 2 -1
6.2603064 1.7508144 0.69304216 3 -1
6.0687528 2.0158472 0.69137192 3 -1
5.8968353 2.1264367 0.68244064 3 -1
5.7463255 2.1783628 0.68490118 3 -1
5.5584335 4.3923063 0.57690966 3 -1
5.4847431 4.536356 0.56266767 3 -1
5.427505 4.6572666 0.56978863 3 -1
5.3653612 4.695323 0.56821698 3 -1
5.3017921 4.7597294 0.55784965 3 -1
5.2599754 4.8272266 0.56018168 3 -1
5.1979985 4.865334 0.57494169 3 -1
5.1297984 4.8938494 0.53357726 3 -1
5.0914531 4.9117155 0.56757748 3 -1
5.0352488 4.9362783 0.56683999 3 -1
4.9552741 4.9477968 0.56114137 3 -1
4.9209223 4.9861393 0.5668326 3 -1
4.8520284 4.9931717 0.54843473 3 -1
4.7814565 5.0133471 0.57205051 3 -1
4.7328897 5.0102801 0.55878526 3 -1
4.6647582 5.0128541 0.5664112 3 -1
4.6023407 4.9965763 0.56276888 3 -1
4.5341792 5.0227084 0.5605886 3 -1
4.4322987 4.9962535 0.56628156 3 -1
4.3303652 4.9809813 0.56756216 3 -1
4.2104621 4.9182224 0.58913285 3 -1
4.0518003 4.8123426 0.58191693 3 -1
2.5598989 2.9581904 0.69098318 3 -1
2.4062507 3.0214155 0.68231565 3 -1
2.2402463 3.0498581 0.67480654 3 -1
2.0569892 3.0565619 0.70887852 3 -1
1.7906456 3.0008388 0.72743249 3 -1
4.9850268 6.4036398 0.5051133 3 -1
5.0255861 6.4834208 0.49530345 3 -1
5.0840077 6.5154023 0.49826398 3 -1
5.0867286 6.5550928 0.49851468 3 -1
5.1199818 6.5836487 0.49561533 3 -1
5.1057072 6.6123447 0.49252027 3 -1
5.1057577 6.6265068 0.47938269 3 -1
5.14153 6.6560569 0.48533016 3 -1
5.1548615 6.6583533 0.49318379 3 -1
5.1236262 6.7072563 0.484404 3 -1
5.1668472 6.7136726 0.50057971 3 -1
5.1576128 6.7403727 0.49596855 3 -1
5.1552877 6.7374525 0.50793463 3 -1
5.1666074 6.7393379 0.46114886 3 -1
5.154664 6.7636528 0.48496443 3 -1
5.179193 6.7728949 0.48458689 3 -1
5.1830492 6.7921357 0.50736636 3 -1
5.1793904 6.788631 0.48531562 3 -1
5.1611385 6.8100252 0.49595553 3 -1
5.1831164 6.803761 0.47673613 3 -1
5.1909451 6.8382339 0.50159991 3 -1
5.1939631 6.8347201 0.46182251 3 -1
5.1989899 6.8618717 0.49250945 3 -1
5.1779003 6.884201 0.48931786 3 -1
5.1852732 6.8720455 0.47714832 3 -1
7.0401826 4.12221 0.68626696 2 -1
7.0450249 3.9093204 0.6868909 2 -1
7.0594788 3.6791184 0.70016617 2 -1
7.0204873 3.4376321 0.70731676 2 -1
7.0223894 3.1568577 0.71815687 2 -1
7.0298409 2.8022723 0.74826735 2 -1
7.0162797 2.4173632 0.77993715 2 -1
6.9847817 1.9478812 0.78734773 2 -1
6.9987435 1.3895783 0.83194292 2 -1
6.2487316 1.7602382 0.8037374 3 -1
6.0613976 2.0398836 0.76314294 3 -1
5.9108086 2.1218925 0.77580845 3 -1
5.7515945 2.1874404 0.77409172 3 -1
5.5768538 4.3781476 0.63912022 3 -1
5.4880695 4.5467949 0.61188287 3 -1
5.4315233 4.6399031 0.61146688 3 -1
5.3835721 4.7093678 0.62041777 3 -1
5.3002343 4.7575712 0.59939313 3 -1
5.2404604 4.8200951 0.61093366 3 -1
5.1989985 4.8654742 0.60835248 3 -1
5.1437445 4.8784122 0.60608643 3 -1
5.0724993 4.9022999 0.59914374 3 -1
5.0293546 4.9518528 0.56872505 3 -1
4.9474835 4.9709458 0.60516071 3 -1
4.9126258 4.9783473 0.58208722 3 -1
4.8373961 4.9989433 0.59728616 3 -1
4.7928314 4.995903 0.59819198 3 -1
4.7231574 4.9803944 0.60877794 3 -1
4.6493053 5.0005679 0.60795176 3 -1
4.5926218 5.017518 0.60053289 3 -1
4.5267019 4.9908562 0.60037887 3 -1
4.4152026 4.9753065 0.61969155 3 -1
4.3326426 4.9627314 0.61864936 3 -1
4.2181644 4.9206791 0.61458629 3 -1
4.0901694 4.8296938 0.62713432 3 -1
2.5614922 2.9548268 0.78303039 3 -1
2.4183574 3.0139253 0.80803978 3 -1
2.2560773 3.0580575 0.78552532 3 -1
2.0422149 3.0521274 0.80690044 3 -1
1.7874048 3.0248191 0.81022203 3 -1
4.9981804 6.3966928 0.50469762 3 -1
5.0272245 6.466373 0.50578725 3 -1
5.0713301 6.5198503 0.507285 3 -1
5.0594354 6.5577178 0.4975585 3 -1
5.094172 6.5851989 0.49071962 3 -1
5.1127987 6.6309977 0.50615513 3 -1
5.1084127 6.6273527 0.51479244 3 -1
5.1356568 6.6688948 0.50180632 3 -1
5.1481175 6.6734457 0.49637839 3 -1
5.1473503 6.683454 0.48877844 3 -1
5.1465297 6.7102695 0.49995795 3 -1
5.1599088 6.722302 0.49138781 3 -1
5.1659803 6.7371635 0.49042079 3 -1
5.1728239 6.7408733 0.47301096 3 -1
5.1555281 6.7926116 0.48948777 3 -1
5.1519461 6.7825761 0.49961725 3 -1
5.1624274 6.7796273 0.49180579 3 -1
5.1633725 6.8049951 0.49090523 3 -1
5.1916256 6.7947307 0.52232617 3 -1
5.1907926 6.8377047 0.48811209 3 -1
5.1888819 6.8468485 0.50055993 3 -1
5.1924324 6.8510075 0.48501658 3 -1
5.1700106 6.842382 0.47731385 3 -1
5.1953859 6.8729606 0.48612162 3 -1
5.1773815 6.8730936 0.50180626 3 -1
7.0507417 4.1133623 0.74288762 2 -1
7.029799 3.9308095 0.74701798 2 -1
7.0519896 3.692559 0.78442299 2 -1
7.025897 3.4339654 0.77839804 2 -1
7.030643 3.131568 0.82524705 2 -1
7.0236063 2.8069949 0.83963746 2 -1
7.0259228 2.416255 0.85571945 2 -1
6.9926763 1.9509454 0.93399155 2 -1
6.9864645 1.3842902 0.94609511 2 -1
6.2470217 1.7677789 0.92500806 3 -1
6.0701566 2.0305791 0.8932755 3 -1
5.9109139 2.1262155 0.88175631 3 -1
5.7745509 2.1528821 0.85195148 3 -1
5.5611148 4.3813066 0.67947841 3 -1
5.4827523 4.5297537 0.66410792 3 -1
5.4360652 4.6351395 0.67405689 3 -1
5.3797092 4.6869535 0.660097 3 -1
5.3094358 4.7558651 0.65112388 3 -1
5.2502189 4.8107038 0.65908241 3 -1
5.2018728 4.8527565 0.66908622 3 -1
5.1306901 4.8841753 0.65725553 3 -1
5.0835223 4.9076576 0.65092438 3 -1
5.0069356 4.9485607 0.65211302 3 -1
4.9724541 4.9660625 0.65679812 3 -1
4.8994813 4.975471 0.63370955 3 -1
4.844902 4.982295 0.6406374 3 -1
4.7769513 5.0143852 0.64630979 3 -1
4.7397766 5.0218749 0.65342569 3 -1
4.6309772 5.0208015 0.63549179 3 -1
4.5925655 5.0106077 0.62649882 3 -1
4.4983482 4.9963312 0.66435254 3 -1
4.4358006 4.9899864 0.63396013 3 -1
4.327086 4.9749808 0.66930741 3 -1
4.2150531 4.9229026 0.69568098 3 -1
4.0695858 4.8258591 0.69017804 3 -1
2.5629292 2.9382448 0.91147798 3 -1
2.4132557 3.0175681 0.89560378 3 -1
2.2538023 3.0579455 0.9223851 3 -1
2.0533867 3.0469449 0.92270684 3 -1
1.7946272 3.0101564 0.93405104 3 -1
4.9858546 6.4096413 0.53566295 3 -1
5.0217052 6.4787025 0.51459169 3 -1
5.0699029 6.5294919 0.5085547 3 -1
5.081512 6.5405273 0.506226 3 -1
5.090867 6.5762982 0.51627862 3 -1
5.1121607 6.6078844 0.52033591 3 -1
5.1283774 6.6316247 0.50779575 3 -1
5.1221623 6.6567607 0.51056737 3 -1
5.1431961 6.6590905 0.50473422 3 -1
5.1392984 6.6842728 0.50473058 3 -1
5.1509337 6.7066107 0.51292902 3 -1
5.1652794 6.7111201 0.50649107 3 -1
5.1526809 6.7421465 0.5058614 3 -1
5.1564913 6.7450838 0.52247053 3 -1
5.1653633 6.7734799 0.52490008 3 -1
5.171257 6.7824693 0.49202263 3 -1
5.1845574 6.792047 0.49731824 3 -1
5.1702924 6.7990603 0.48736036 3 -1
5.1783161 6.8144608 0.51119357 3 -1
5.1928415 6.8196125 0.50770366 3 -1
5.1532693 6.8405051 0.49370909 3 -1
5.184679 6.8276234 0.50804895 3 -1
5.1966023 6.8630347 0.48430657 3 -1
5.1873145 6.8618159 0.5181824 3 -1
5.1841011 6.8857045 0.50201488 3 -1
7.0560269 4.1248426 0.79522526 2 -1
7.0285826 3.9132125 0.82491982 2 -1
7.031497 3.6839662 0.84627473 2 -1
7.0281696 3.430274 0.87109107 2 -1
7.0390081 3.142803 0.90030181 2 -1
7.0278063 2.8101053 0.92828405 2 -1
7.0437927 2.4232426 0.97513843 2 -1
7.0004616 1.9432268 1.0273399 2 -1
7.0075169 1.3753552 1.0861788 2 -1
6.2501278 1.7628274 1.0291793 3 -1
6.0513387 2.0415359 0.9883343 3 -1
5.8973393 2.132164 1.0000174 3 -1
5.7576785 2.1947155 0.99317509 3 -1
5.5746622 4.4063306 0.73669112 3 -1
5.507669 4.528368 0.71748143 3 -1
5.4323587 4.6382766 0.7216239 3 -1
5.3656874 4.7151213 0.70540524 3 -1
5.2905669 4.7780704 0.69526839 3 -1
5.242497 4.7947693 0.68735719 3 -1
5.1976075 4.8596807 0.6938985 3 -1
5.1300387 4.8781877 0.69365168 3 -1
5.0664463 4.9342365 0.70471585 3 -1
5.0078506 4.9368033 0.66602826 3 -1
4.9632578 4.9786911 0.68947434 3 -1
4.9031744 4.9727597 0.66818714 3 -1
4.8590965 4.9759455 0.67761064 3 -1
4.7888584 5.0074129 0.69344312 3 -1
4.7263808 4.9946642 0.68344927 3 -1
4.6511631 5.0001373 0.68804973 3 -1
4.595737 5.0205898 0.69823241 3 -1
4.5089235 5.0122604 0.6906023 3 -1
4.4405985 4.9864626 0.70363575 3 -1
4.3254271 4.9578981 0.70998728 3 -1
4.2471313 4.9102325 0.74034607 3 -1
4.0822573 4.8102627 0.73335224 3 -1
2.5596402 2.9458933 1.0066094 3 -1
2.4132898 3.005718 0.98629773 3 -1
2.2532017 3.0378642 1.0108438 3 -1
2.0393801 3.0720122 1.0307636 3 -1
1.7678266 3.0076571 1.0528176 3 -1
4.9870896 6.4209342 0.54809552 3 -1
5.0358324 6.4757586 0.53599697 3 -1
5.0562162 6.5259714 0.52320653 3 -1
5.0696435 6.5524001 0.51945072 3 -1
5.1086655 6.5905905 0.54276276 3 -1
5.1140709 6.6135197 0.54014742 3 -1
5.1174388 6.6526256 0.51175046 3 -1
5.1481876 6.6481924 0.51710147 3 -1
5.1433344 6.6632204 0.53102064 3 -1
5.1383471 6.6967702 0.49977264 3 -1
5.1600523 6.710906 0.52598321 3 -1
5.1544709 6.7410398 0.49984139 3 -1
5.1456413 6.7525058 0.52388048 3 -1
5.1573553 6.7386546 0.48856026 3 -1
5.1566577 6.7840033 0.52847677 3 -1
5.1648536 6.7546153 0.5122599 3 -1
5.1634226 6.7918954 0.50269699 3 -1
5.1687703 6.8051162 0.50241023 3 -1
5.1910648 6.7989421 0.5179013 3 -1
5.1835647 6.8260498 0.50276911 3 -1
5.1884408 6.8358836 0.51662701 3 -1
5.1793995 6.8620601 0.49872082 3 -1
5.1946015 6.8545394 0.51245952 3 -1
5.1967697 6.8606229 0.51448816 3 -1
5.2111073 6.8849235 0.50491595 3 -1
7.0541182 4.1217308 0.88887042 2 -1
7.0416217 3.9121861 0.8931914 2 -1
7.0413761 3.6970062 0.9310534 2 -1
7.0229645 3.4212985 0.9813531 2 -1
7.0488262 3.1481769 1.0055411 2 -1
7.0201612 2.7996564 1.0374962 2 -1
7.0190463 2.4307432 1.0910347 2 -1
7.0126038 1.9486537 1.1336184 2 -1
6.9899774 1.3973942 1.2082224 2 -1
6.2327776 1.7510839 1.1421478 3 -1
6.0457454 2.0265031 1.0953829 3 -1
5.9077306 2.1342688 1.0839536 3 -1
5.7586341 2.1816955 1.0860438 3 -1
5.5588379 4.3795185 0.7848891 3 -1
5.5061827 4.5280638 0.75459296 3 -1
5.4269218 4.648962 0.74535149 3 -1
5.3690524 4.7148943 0.75121564 3 -1
5.3283858 4.7571621 0.75120974 3 -1
5.2443733 4.8099184 0.72854924 3 -1
5.1890078 4.8356233 0.73369944 3 -1
5.146987 4.89147 0.7389136 3 -1
5.0784435 4.9286757 0.74714088 3 -1
5.014298 4.9426827 0.72373039 3 -1
4.953083 4.9704561 0.73979759 3 -1
4.9179397 4.9778314 0.724666 3 -1
4.8399086 5.0021214 0.72118503 3 -1
4.7980442 5.0041652 0.72204268 3 -1
4.7245593 4.9962339 0.7342338 3 -1
4.6663589 5.0143752 0.74311733 3 -1
4.5887623 5.0120635 0.73494172 3 -1
4.5062652 4.998354 0.7781108 3 -1
4.4347024 4.9945922 0.75958312 3 -1
4.3254547 4.966032 0.77436781 3 -1
4.2049079 4.9223008 0.76723361 3 -1
4.0648041 4.8228207 0.80274129 3 -1
2.5616777 2.9507213 1.1001548 3 -1
2.4094837 3.014169 1.0984187 3 -1
2.2255092 3.0406787 1.1203903 3 -1
2.0338109 3.0630338 1.1446275 3 -1
1.788203 3.0027149 1.1536248 3 -1
5.0121536 6.4044037 0.55612171 3 -1
5.0419698 6.4672241 0.53618538 3 -1
5.0572329 6.5170078 0.55202007 3 -1
5.068377 6.5541897 0.54859465 3 -1
5.1015782 6.5815401 0.53387296 3 -1
5.1001997 6.6172185 0.53791571 3 -1
5.1343446 6.6140079 0.53228974 3 -1
5.1233482 6.6602778 0.53290653 3 -1
5.1365018 6.673965 0.52392876 3 -1
5.1433392 6.7045798 0.52407527 3 -1
5.153327 6.7008085 0.52427578 3 -1
5.1618719 6.7274551 0.50745803 3 -1
5.1666675 6.7336955 0.52288991 3 -1
5.1785059 6.7499299 0.50383759 3 -1
5.1701512 6.7594314 0.51497298 3 -1
5.1838431 6.7749829 0.51968545 3 -1
5.166625 6.7930627 0.5123378 3 -1
5.1895242 6.8076396 0.51041609 3 -1
5.1940594 6.8072958 0.49730352 3 -1
5.1740022 6.8376293 0.5241074 3 -1
5.1734028 6.8282557 0.50814563 3 -1
5.1890903 6.8538828 0.50993872 3 -1
5.1941571 6.8420453 0.52565473 3 -1
5.194798 6.8597994 0.51449358 3 -1
5.1917343 6.8692803 0.50629908 3 -1
7.046865 4.116787 0.95700359 2 -1
7.04708 3.9257081 0.98035347 2 -1
7.0245528 3.6821642 0.99708498 2 -1
7.047585 3.4174893 1.0419537 2 -1
7.0306168 3.1389961 1.0757034 2 -1
7.0351572 2.817028 1.1248856 2 -1
7.0097222 2.4373379 1.1788646 2 -1
7.001688 1.9686894 1.2266035 2 -1
6.9938855 1.3661113 1.3377585 2 -1
6.248395 1.7622066 1.2410946 3 -1
6.0508842 2.0465007 1.1832089 3 -1
5.9257812 2.1348186 1.1890963 3 -1
5.7658486 2.1794863 1.1729867 3 -1
5.5581942 4.3913798 0.85770881 3 -1
5.4909453 4.541605 0.83455133 3 -1
5.4143429 4.6369371 0.82374436 3 -1
5.3717489 4.7272806 0.7922045 3 -1
5.3067036 4.7606812 0.79942411 3 -1
5.2360225 4.8082581 0.77477586 3 -1
5.1913056 4.8623714 0.78074539 3 -1
5.1386185 4.8889718 0.79336494 3 -1
5.0812211 4.9006805 0.76610523 3 -1
5.0265937 4.9358664 0.76940805 3 -1
4.9707985 4.9523201 0.77695477 3 -1
4.911993 4.9886742 0.77550042 3 -1
4.8432727 4.9957147 0.77172625 3 -1
4.798172 4.9914408 0.79402077 3 -1
4.7366362 5.0039535 0.76214421 3 -1
4.6528325 5.0083618 0.77958715 3 -1
4.597971 5.0052562 0.79073548 3 -1
4.5266342 5.0187216 0.77126682 3 -1
4.4198556 5.005825 0.81210542 3 -1
4.3445492 4.975563 0.81046104 3 -1
4.2219534 4.9094458 0.82041132 3 -1
4.0973191 4.8355417 0.84844148 3 -1
2.5605319 2.9671259 1.2109417 3 -1
2.4216011 3.0358973 1.2238808 3 -1
2.2453876 3.0680172 1.2255316 3 -1
2.032553 3.0623214 1.260757 3 -1
1.7797523 3.005429 1.2909863 3 -1
4.9758391 6.3969259 0.58248949 3 -1
5.0235276 6.4611287 0.55212277 3 -1
5.058969 6.5443463 0.56429404 3 -1
5.085896 6.5767975 0.55581212 3 -1
5.0975742 6.5831671 0.52545357 3 -1
5.1138077 6.5696278 0.55710948 3 -1
5.1214561 6.6170902 0.55035836 3 -1
5.1180663 6.6612663 0.53682619 3 -1
5.1480012 6.6765189 0.52749383 3 -1
5.125062 6.6898632 0.52266181 3 -1
5.1555901 6.7167563 0.51590621 3 -1
5.1453285 6.7352743 0.52284223 3 -1
5.1643682 6.7284932 0.5272876 3 -1
5.1787581 6.7446084 0.53720677 3 -1
5.1653175 6.7436705 0.5497784 3 -1
5.1790004 6.7960024 0.51686198 3 -1
5.156394 6.8110118 0.53538585 3 -1
5.1785798 6.7996898 0.51604706 3 -1
5.1650667 6.8191924 0.52517581 3 -1
5.1831303 6.8270316 0.5239464 3 -1
5.1886792 6.8326845 0.50424129 3 -1
5.1794786 6.847373 0.51513326 3 -1
5.1924472 6.8517032 0.53392696 3 -1
5.1838136 6.8888183 0.5044319 3 -1
5.1824126 6.8766751 0.52776343 3 -1
7.0360732 4.1164436 1.019439 2 -1
7.0330362 3.9300542 1.0441241 2 -1
7.0241966 3.708441 1.0705739 2 -1
7.0374279 3.4241643 1.1301832 2 -1
7.0222282 3.1368458 1.1698772 2 -1
7.0291119 2.8260813 1.213841 2 -1
7.0016313 2.4184012 1.3052024 2 -1
6.9906588 1.9608154 1.3719097 2 -1
6.999794 1.3736668 1.4633846 2 -1
6.2482786 1.7738957 1.3865356 3 -1
6.068809 2.0333018 1.3267035 3 -1
5.911562 2.1245618 1.2839203 3 -1
5.7675691 2.1937652 1.3017936 3 -1
5.5435276 4.3858738 0.88850957 3 -1
5.4931917 4.5273438 0.87326109 3 -1
5.4259915 4.6168332 0.83632487 3 -1
5.381391 4.7029591 0.84818751 3 -1
5.3305216 4.7591691 0.84321046 3 -1
5.2481008 4.8305697 0.83000666 3 -1
5.195775 4.8373251 0.82242644 3 -1
5.1277328 4.8791084 0.80737078 3 -1
5.0783005 4.9083695 0.81956494 3 -1
5.030601 4.9616423 0.81112421 3 -1
4.9638495 4.9596338 0.81007844 3 -1
4.8998981 4.9816866 0.83677173 3 -1
4.8383784 5.0158362 0.81387973 3 -1
4.8050442 5.0048242 0.82031614 3 -1
4.731451 5.010664 0.80420303 3 -1
4.6473117 5.0249496 0.81742936 3 -1
4.6048956 5.0209632 0.83054912 3 -1
4.4975753 5.0149484 0.83253193 3 -1
4.4414473 4.9640131 0.84526116 3 -1
4.3404398 4.9654984 0.86142683 3 -1
4.2315688 4.9226794 0.87289977 3 -1
4.0702629 4.8411012 0.91725099 3 -1
2.5698681 2.9659877 1.3360991 3 -1
2.4132774 3.0186145 1.3244278 3 -1
