# .PCD v0.7 - Point Cloud Data file format
VERSION 0.7
FIELDS x y z label
SIZE 4 4 4 4
TYPE F F F U
COUNT 1 1 1 1
WIDTH 1261
HEIGHT 1
VIEWPOINT 1.00001 1.00003 0.0997755 1 0 0 0
POINTS 1261
DATA ascii
0.48160303 0.092744112 0.6018039 2 -1
0.45679259 0.1115579 0.58135277 2 -1
0.42857385 0.11771941 0.62325186 2 -1
0.3954643 0.11435515 0.60997766 2 -1
0.34859514 0.1227951 0.6269455 2 -1
0.31218672 0.11916482 0.60744101 2 -1
0.26149756 0.11117512 0.61092162 2 -1
0.22708827 0.11614168 0.61498451 2 -1
0.1891405 0.11078411 0.61861038 2 -1
0.14536887 0.098700762 0.62909895 2 -1
0.089770198 0.11604947 0.63687468 2 -1
0.07350558 0.14694881 0.6486733 2 -1
0.083159149 0.19925386 0.6289432 2 -1
0.082226574 0.24752963 0.64087057 2 -1
0.087873101 0.27364588 0.62482947 2 -1
0.086934507 0.30839688 0.60581565 2 -1
0.092062891 0.33865422 0.62127006 2 -1
0.086303592 0.38888621 0.6126436 2 -1
0.091824949 0.40305525 0.60329413 2 -1
0.082783937 0.46172112 0.62065661 2 -1
0.10144162 0.48050982 0.60579878 2 -1
0.099945009 0.4967038 0.61575693 2 -1
0.095249295 0.55364525 0.60429275 2 -1
0.095867038 0.58125365 0.60350102 2 -1
0.095496953 0.6011163 0.6013329 2 -1
0.0943892 0.62885892 0.61994672 2 -1
0.10061306 0.64946079 0.60372198 2 -1
0.094670594 0.67750955 0.61306995 2 -1
0.082585752 0.70390308 0.58679444 2 -1
0.093458414 0.73165989 0.60151803 2 -1
0.10525644 0.76788616 0.5974443 2 -1
0.098799348 0.79670894 0.57999647 2 -1
0.11449075 0.80182904 0.60367095 2 -1
0.1123687 0.81850475 0.59344774 2 -1
0.10663289 0.8480047 0.59266478 2 -1
0.10714895 0.86089694 0.59704739 2 -1
1.3584037 0.09356916 0.62044954 2 -1
1.3089178 0.095005095 0.63287121 2 -1
1.2848114 0.092335224 0.61597866 2 -1
1.2811849 0.10520893 0.61072171 2 -1
1.2268493 0.097251117 0.61826527 2 -1
1.2095084 0.080572486 0.62446558 2 -1
1.1855086 0.094456673 0.6194396 2 -1
1.1709722 0.091524065 0.60076743 2 -1
1.1350819 0.097010434 0.62229222 2 -1
1.0896695 0.11795121 0.61138117 2 -1
1.0798315 0.0965119 0.62362677 2 -1
1.0528884 0.095587909 0.58656293 2 -1
1.0349803 0.097512782 0.60668629 2 -1
0.99496031 0.091751039 0.61176276 2 -1
0.98792982 0.093115449 0.60794961 2 -1
0.96055532 0.10367537 0.58785808 2 -1
0.93842268 0.10819739 0.60153913 2 -1
0.92380244 0.10084301 0.60135818 2 -1
0.89367974 0.10128421 0.60956305 2 -1
0.85432816 0.10388064 0.61323255 2 -1
0.86142212 0.10880601 0.60401112 2 -1
0.82828498 0.11067301 0.60930133 2 -1
0.80434048 0.11150795 0.60681188 2 -1
0.77473259 0.095178604 0.59570801 2 -1
0.75047696 0.11120552 0.59877491 2 -1
0.73841482 0.10869718 0.61523819 2 -1
0.69430411 0.10853273 0.59931695 2 -1
0.66642612 0.096230865 0.61393607 2 -1
0.66192222 0.1005708 0.60631251 2 -1
0.62625062 0.12398648 0.61009556 2 -1
0.62245941 0.095999122 0.60229409 2 -1
0.56672561 0.10982972 0.60148406 2 -1
0.55092221 0.11195201 0.63000363 2 -1
0.51036119 0.10586244 0.62088233 2 -1
0.48252583 0.11849916 0.61758137 2 -1
0.44638526 0.12299275 0.62866646 2 -1
0.40814656 0.099969923 0.6359477 2 -1
0.37287444 0.11726022 0.61639285 2 -1
0.34675503 0.11980647 0.65314353 2 -1
0.31023365 0.10810089 0.63602281 2 -1
0.29055649 0.10033131 0.65269959 2 -1
0.22769964 0.10205239 0.64925987 2 -1
0.19015086 0.12509716 0.6520049 2 -1
0.14971441 0.11225134 0.67493218 2 -1
0.10553819 0.11668706 0.65395612 2 -1
0.083306968 0.14245236 0.66553873 2 -1
0.084974408 0.19443846 0.66014266 2 -1
0.076599181 0.24242872 0.63805497 2 -1
0.089172781 0.27286869 0.65477818 2 -1
0.096064329 0.31837565 0.6476171 2 -1
0.09393245 0.35339862 0.64662057 2 -1
0.11558712 0.39318025 0.62897485 2 -1
0.092845798 0.41565579 0.62842155 2 -1
0.095431626 0.45262671 0.63574743 2 -1
0.10656482 0.49457771 0.62243408 2 -1
0.086282611 0.50812662 0.62065893 2 -1
0.10087174 0.54124713 0.63748193 2 -1
0.093465984 0.56735098 0.61374855 2 -1
0.10508436 0.59678519 0.60903341 2 -1
0.10842961 0.6240896 0.62209451 2 -1
0.088238776 0.65578151 0.62245226 2 -1
0.085315168 0.6795156 0.61272037 2 -1
0.093102276 0.69261098 0.60955197 2 -1
0.095808625 0.73732948 0.6208958 2 -1
0.11160791 0.74748325 0.60183328 2 -1
0.090767264 0.79537719 0.60039043 2 -1
0.11250854 0.81963885 0.61457044 2 -1
0.099581301 0.83744544 0.62462747 2 -1
0.10078943 0.87501073 0.60063553 2 -1
0.091588318 0.88064277 0.61554199 2 -1
1.350374 0.077246726 0.63119882 2 -1
1.3196527 0.10570329 0.62520838 2 -1
1.2837675 0.094241023 0.64230907 2 -1
1.2718793 0.096534193 0.65232009 2 -1
1.2130709 0.098926187 0.63482285 2 -1
1.2005035 0.099057496 0.63820934 2 -1
1.1751782 0.11548024 0.65226257 2 -1
1.1509086 0.10603929 0.62692082 2 -1
1.1339419 0.12356424 0.62647986 2 -1
1.1108903 0.09376967 0.63745874 2 -1
1.0751729 0.10310853 0.60775626 2 -1
1.0711805 0.093370736 0.62148237 2 -1
1.0318935 0.11826885 0.61551428 2 -1
1.0046465 0.1115247 0.60500836 2 -1
0.97251403 0.10480303 0.62517977 2 -1
0.95638812 0.1173597 0.63509572 2 -1
0.93168712 0.07980758 0.62882084 2 -1
0.93226719 0.11066705 0.6247887 2 -1
0.88196963 0.10444701 0.61621433 2 -1
0.87025744 0.090386093 0.61207348 2 -1
0.84769112 0.10037649 0.61230415 2 -1
0.82668662 0.097270727 0.62463188 2 -1
0.81194961 0.11664331 0.63796705 2 -1
0.76801002 0.11319166 0.62815356 2 -1
0.76485407 0.11050904 0.6294024 2 -1
0.72574776 0.099460542 0.61158156 2 -1
0.70871198 0.10326785 0.62611604 2 -1
0.67867589 0.11145139 0.63201421 2 -1
0.64950776 0.1234439 0.63063323 2 -1
0.63128006 0.11572039 0.6218729 2 -1
0.59331059 0.10587901 0.64247137 2 -1
0.58871937 0.10519511 0.62696081 2 -1
0.54858828 0.096767783 0.63065004 2 -1
0.50138581 0.12679374 0.63261282 2 -1
0.48650229 0.10442448 0.65101874 2 -1
0.444489 0.11546463 0.6426307 2 -1
0.41885 0.11537838 0.64866954 2 -1
0.38754559 0.12535226 0.65391862 2 -1
0.3390466 0.12471217 0.65775025 2 -1
0.31285453 0.10210592 0.64128727 2 -1
0.28454316 0.10498452 0.65373772 2 -1
0.23839056 0.11445183 0.68269217 2 -1
0.18366188 0.11776179 0.67649364 2 -1
0.14521039 0.10795254 0.68293786 2 -1
0.081746459 0.11733568 0.6710996 2 -1
0.090303183 0.15910047 0.66426718 2 -1
0.084449172 0.19733113 0.68926054 2 -1
0.094062388 0.24857664 0.67225409 2 -1
0.081601024 0.28068298 0.68945754 2 -1
0.097076952 0.32404643 0.65711927 2 -1
0.083137929 0.33380866 0.6706211 2 -1
0.094569921 0.39404261 0.6462636 2 -1
0.094946742 0.4146806 0.64697981 2 -1
0.099792361 0.44333881 0.65607035 2 -1
0.083697557 0.48326629 0.64638954 2 -1
0.098570168 0.51316929 0.65548146 2 -1
0.1128093 0.52537727 0.6267488 2 -1
0.10848439 0.56915748 0.6486488 2 -1
0.093966067 0.59290993 0.653705 2 -1
0.084619164 0.61430967 0.64384627 2 -1
0.1066404 0.65876651 0.63444674 2 -1
0.089411676 0.69483161 0.63269627 2 -1
0.10277689 0.70864093 0.63657993 2 -1
0.098391235 0.7302345 0.64021176 2 -1
0.094652295 0.77440047 0.62300992 2 -1
0.10013545 0.77069789 0.62429416 2 -1
0.12386757 0.8021912 0.64982116 2 -1
0.10885745 0.83008611 0.64177299 2 -1
0.10811663 0.85572255 0.63545203 2 -1
0.087165236 0.86801839 0.61602879 2 -1
1.3780243 0.069781661 0.66602772 2 -1
1.3204492 0.10279304 0.65747684 2 -1
1.2989837 0.091684937 0.65730071 2 -1
1.2813582 0.071729064 0.64032829 2 -1
1.2329794 0.090535522 0.65655774 2 -1
1.2285095 0.078763127 0.65162444 2 -1
1.1853302 0.093746722 0.66704297 2 -1
1.1661415 0.10239184 0.6385479 2 -1
1.1442896 0.083297968 0.64733857 2 -1
1.1050497 0.10397148 0.62590843 2 -1
1.0787779 0.10704303 0.64101422 2 -1
1.0547138 0.085083663 0.64378542 2 -1
1.0321871 0.11430609 0.63161349 2 -1
1.0168301 0.10747308 0.64038289 2 -1
0.98506242 0.097178817 0.6387862 2 -1
0.96440417 0.085802257 0.64623219 2 -1
0.94189036 0.10619378 0.64584023 2 -1
0.91902912 0.076602578 0.62272179 2 -1
0.89324778 0.12036479 0.6327334 2 -1
0.87968886 0.10013688 0.64318466 2 -1
0.83797717 0.10957289 0.64536476 2 -1
0.81218344 0.10209209 0.63688159 2 -1
0.81342137 0.10442877 0.65268183 2 -1
0.78793943 0.13170177 0.65206653 2 -1
0.7436859 0.10352188 0.6309315 2 -1
0.7234056 0.11303574 0.65081203 2 -1
0.71502429 0.098257601 0.63634503 2 -1
0.68561381 0.11548996 0.64644712 2 -1
0.64315987 0.091397047 0.67356366 2 -1
0.63146436 0.10739189 0.6487962 2 -1
0.60156977 0.1025551 0.62240589 2 -1
0.594289 0.09984374 0.64813906 2 -1
0.53511119 0.1159367 0.67435479 2 -1
0.51593369 0.13178605 0.66866416 2 -1
0.48505384 0.11495012 0.66416359 2 -1
0.45103449 0.10910845 0.67693782 2 -1
0.42725855 0.11932629 0.67587006 2 -1
0.38723063 0.091685116 0.68287659 2 -1
0.35798049 0.11352843 0.6776942 2 -1
0.32034761 0.10594279 0.68644595 2 -1
0.30082375 0.1142512 0.70577085 2 -1
0.23061651 0.12064797 0.69516402 2 -1
0.197429 0.11594796 0.69717783 2 -1
0.16997796 0.13627642 0.69992328 2 -1
0.1063596 0.11629927 0.70640957 2 -1
0.089734554 0.15406185 0.70878881 2 -1
0.088449717 0.20755607 0.70243812 2 -1
0.073703766 0.23811072 0.71682405 2 -1
0.10503656 0.27627385 0.70675659 2 -1
0.10008532 0.32858604 0.6813398 2 -1
0.10387874 0.35341597 0.67997372 2 -1
0.087642133 0.39629042 0.67916977 2 -1
0.10314554 0.39547133 0.68030107 2 -1
0.080006242 0.47913617 0.66368651 2 -1
0.085338056 0.47630757 0.66717994 2 -1
0.077628076 0.5085445 0.65662539 2 -1
0.098053396 0.52440858 0.67284089 2 -1
0.10412061 0.57084632 0.65352082 2 -1
0.10093415 0.6150223 0.65631413 2 -1
0.10252619 0.63446414 0.6505245 2 -1
0.12934941 0.6712563 0.66098714 2 -1
0.10992217 0.67149556 0.63556576 2 -1
0.10021204 0.70848942 0.65128934 2 -1
0.10519159 0.73427224 0.66312325 2 -1
0.096305072 0.75679976 0.65195155 2 -1
0.096364975 0.77780843 0.65418059 2 -1
0.10572147 0.82009017 0.64782292 2 -1
0.1068244 0.84291369 0.64504516 2 -1
0.10788721 0.85207969 0.63495904 2 -1
0.098179877 0.86933506 0.64759779 2 -1
1.3482242 0.082891166 0.68880975 2 -1
1.3308866 0.082745016 0.68653435 2 -1
1.2745411 0.10632789 0.67018008 2 -1
1.2673113 0.089717209 0.68252563 2 -1
1.2382271 0.11073047 0.67041093 2 -1
1.2035782 0.12371624 0.67702448 2 -1
1.1925939 0.11863565 0.67060041 2 -1
1.1545398 0.089415431 0.67287838 2 -1
1.1183829 0.12178802 0.65781188 2 -1
1.1144207 0.10672677 0.66600728 2 -1
1.0885534 0.098023891 0.66751307 2 -1
1.0655572 0.10707337 0.65805924 2 -1
1.0339037 0.10582715 0.66692173 2 -1
1.0091418 0.10634142 0.66183305 2 -1
0.99583656 0.10551137 0.65472668 2 -1
0.96851599 0.096296012 0.65640312 2 -1
0.95774561 0.095142305 0.63857365 2 -1
0.9161486 0.11329025 0.64960194 2 -1
0.90722567 0.10576218 0.66256213 2 -1
0.86226571 0.10352498 0.6637882 2 -1
0.85687268 0.1248287 0.66112691 2 -1
0.82967466 0.10759085 0.6520524 2 -1
0.78634775 0.092602253 0.66674852 2 -1
0.7758972 0.10636801 0.6757642 2 -1
0.75871325 0.096819937 0.65722972 2 -1
0.73382819 0.1138972 0.64831364 2 -1
0.71333742 0.10013211 0.67346722 2 -1
0.67331183 0.11552143 0.658144 2 -1
0.6769889 0.11039245 0.66129065 2 -1
0.61267114 0.10443491 0.66324997 2 -1
0.59543383 0.099820256 0.66649264 2 -1
0.5622561 0.099369884 0.66952235 2 -1
0.53505719 0.11649078 0.6894868 2 -1
0.49255455 0.10316205 0.67435896 2 -1
0.47662264 0.10352606 0.68144459 2 -1
0.46483701 0.10101449 0.68733245 2 -1
0.41582954 0.10203421 0.70431185 2 -1
0.38957381 0.12343603 0.70007825 2 -1
0.35710448 0.12413877 0.70050979 2 -1
0.33136225 0.13081843 0.69759178 2 -1
0.29315531 0.1215995 0.70504534 2 -1
0.23465574 0.12130463 0.71797365 2 -1
0.17770141 0.12027538 0.72844285 2 -1
0.14153194 0.14147806 0.72280926 2 -1
0.10493648 0.12250251 0.73491108 2 -1
0.075098515 0.14777291 0.74185675 2 -1
0.091881812 0.19178832 0.72212577 2 -1
0.08453244 0.22860593 0.7232635 2 -1
0.091282606 0.27746171 0.7212503 2 -1
0.077718377 0.30914998 0.71764582 2 -1
0.097598791 0.35029888 0.71764612 2 -1
0.10607886 0.38571596 0.698488 2 -1
0.092491508 0.42433411 0.72270924 2 -1
0.095224798 0.4632588 0.71361679 2 -1
0.099932849 0.48377603 0.66825736 2 -1
0.098051429 0.51423264 0.70306855 2 -1
0.092892408 0.53578794 0.6855042 2 -1
0.090215385 0.5789932 0.67630517 2 -1
0.1164254 0.59636647 0.68695766 2 -1
0.090637803 0.62150216 0.6689108 2 -1
0.091234207 0.67643034 0.65604109 2 -1
0.096725583 0.69349062 0.68447477 2 -1
0.089675069 0.70791209 0.68281376 2 -1
0.094141841 0.72701919 0.68587649 2 -1
0.091344655 0.75406992 0.68779033 2 -1
0.091684639 0.78263175 0.68139577 2 -1
0.099328697 0.81657356 0.67276859 2 -1
0.095631719 0.84512651 0.67053592 2 -1
0.08400619 0.86520988 0.67492545 2 -1
0.085199058 0.87498075 0.66917151 2 -1
1.3712292 0.094537973 0.70402431 2 -1
1.3230677 0.11459315 0.6960879 2 -1
1.2893724 0.093276203 0.68864334 2 -1
1.2667491 0.099816978 0.69646585 2 -1
1.2161695 0.1107505 0.68067694 2 -1
1.2024837 0.095309377 0.69930798 2 -1
1.1854172 0.11129284 0.69344366 2 -1
1.1471686 0.086119831 0.67393529 2 -1
1.1201916 0.10298568 0.67112869 2 -1
1.1209499 0.082917988 0.66179407 2 -1
1.0778648 0.1009931 0.68869358 2 -1
1.0570663 0.10547191 0.68298888 2 -1
1.0173835 0.11264211 0.68250054 2 -1
1.0148405 0.079692125 0.67240483 2 -1
0.96851319 0.10071117 0.68738437 2 -1
0.97282928 0.11787057 0.65429437 2 -1
0.94189292 0.090512872 0.68434179 2 -1
0.93600422 0.098456323 0.6740371 2 -1
0.91109598 0.083907902 0.67695677 2 -1
0.86595786 0.089183927 0.67845023 2 -1
0.85004592 0.1164456 0.66135323 2 -1
0.82876897 0.10127163 0.64352226 2 -1
0.80336642 0.11783183 0.65148759 2 -1
0.77344573 0.1050716 0.68158686 2 -1
0.74691963 0.10282558 0.69189173 2 -1
0.73490191 0.11825144 0.6759975 2 -1
0.70027459 0.10999906 0.675807 2 -1
0.65297115 0.10633576 0.6874243 2 -1
0.64886713 0.097354531 0.69276887 2 -1
0.63676393 0.10494184 0.70225239 2 -1
0.59452391 0.10467994 0.67940503 2 -1
0.566293 0.11776179 0.68832821 2 -1
0.55743814 0.10020828 0.68734056 2 -1
0.51965433 0.11967921 0.68498844 2 -1
0.46872604 0.11318886 0.69368404 2 -1
0.46172637 0.10820144 0.70192671 2 -1
0.40848643 0.098605335 0.70757508 2 -1
0.37181318 0.11560303 0.71614665 2 -1
0.35587394 0.11681867 0.73036367 2 -1
0.30657816 0.12187505 0.73151147 2 -1
0.27192092 0.11136383 0.73278141 2 -1
0.23367292 0.11422551 0.73683214 2 -1
0.19812638 0.11927873 0.74978232 2 -1
0.13573343 0.098370194 0.73902011 2 -1
0.10660219 0.11802375 0.7640571 2 -1
0.10361624 0.15479845 0.75750542 2 -1
0.08041048 0.19356209 0.7456075 2 -1
0.09641695 0.24597329 0.75034869 2 -1
0.10458559 0.25917357 0.7525723 2 -1
0.10234356 0.30480623 0.75191891 2 -1
0.096849799 0.36177528 0.73104048 2 -1
0.063068628 0.38671619 0.72530162 2 -1
0.08863461 0.42339683 0.71108776 2 -1
0.08274579 0.46208531 0.70944089 2 -1
0.094718814 0.47491509 0.72061825 2 -1
0.08847487 0.50422096 0.70216906 2 -1
0.10030043 0.55380273 0.70890033 2 -1
0.081571519 0.57194006 0.71500582 2 -1
0.081934571 0.59893632 0.6990127 2 -1
0.093846798 0.6377672 0.7014671 2 -1
0.10065538 0.65464616 0.69623601 2 -1
0.072364032 0.68596864 0.69715941 2 -1
0.097781897 0.68873715 0.70507944 2 -1
0.082927465 0.72167158 0.69498277 2 -1
0.10941225 0.75822157 0.6868766 2 -1
0.1051569 0.79500961 0.69004273 2 -1
0.095049441 0.8121205 0.67804265 2 -1
0.10360563 0.82803231 0.67536658 2 -1
0.10091871 0.86965334 0.68959975 2 -1
0.09655726 0.87571615 0.68984604 2 -1
1.3594565 0.096391797 0.73072577 2 -1
1.3273829 0.085684717 0.7159186 2 -1
1.3013273 0.090278089 0.71456492 2 -1
1.2598777 0.10054463 0.72221559 2 -1
1.2375389 0.11810642 0.72920096 2 -1
1.2188809 0.080719888 0.71040344 2 -1
1.1925886 0.088355839 0.6872499 2 -1
1.1652327 0.11475247 0.70063716 2 -1
1.1336218 0.1065914 0.69378459 2 -1
1.0934577 0.10374826 0.70795417 2 -1
1.0883732 0.10794735 0.68402112 2 -1
1.0667447 0.093002439 0.70636028 2 -1
1.0319782 0.10364854 0.70417237 2 -1
1.0044711 0.11480129 0.71096933 2 -1
0.99914312 0.10960895 0.69672453 2 -1
0.96978176 0.093232572 0.67883921 2 -1
0.93286413 0.11729437 0.67897105 2 -1
0.92651224 0.093422592 0.68985581 2 -1
0.9197337 0.11115932 0.70678914 2 -1
0.86225057 0.11596626 0.68009663 2 -1
0.86238265 0.10312384 0.69909376 2 -1
0.8195042 0.09880805 0.69334394 2 -1
0.80963695 0.11827964 0.6910069 2 -1
0.76564431 0.10999918 0.68907273 2 -1
0.74752682 0.12144536 0.70475495 2 -1
0.74229205 0.10566175 0.72219896 2 -1
0.68975973 0.11004573 0.69685274 2 -1
0.6698153 0.098630071 0.70310932 2 -1
0.65287173 0.094141066 0.68600535 2 -1
0.63992232 0.093870282 0.71100414 2 -1
0.59908557 0.095657349 0.70209277 2 -1
0.55909145 0.097723722 0.70477533 2 -1
0.5306257 0.11725169 0.7103036 2 -1
0.50498557 0.11444354 0.70501029 2 -1
0.48249274 0.11401629 0.71144617 2 -1
0.44424373 0.12267816 0.73546863 2 -1
0.41462249 0.11726791 0.7207135 2 -1
0.36768091 0.12379998 0.7177127 2 -1
0.34438008 0.11003554 0.72370982 2 -1
0.316881 0.10857111 0.75274622 2 -1
0.2703312 0.10773033 0.75580263 2 -1
0.23007888 0.11800349 0.77665418 2 -1
0.18900818 0.11205328 0.78803897 2 -1
0.16505241 0.11666334 0.77648073 2 -1
0.10599196 0.11813408 0.77512693 2 -1
0.10135829 0.15265965 0.77985948 2 -1
0.082293153 0.19878507 0.78613704 2 -1
0.077077746 0.23876512 0.77169901 2 -1
0.096947551 0.27789646 0.77021754 2 -1
0.10720938 0.29713625 0.75335312 2 -1
0.091952741 0.35445607 0.73304617 2 -1
0.10450137 0.39841336 0.7405386 2 -1
0.072924018 0.44098943 0.74808168 2 -1
0.094484687 0.45215589 0.73049712 2 -1
0.081484735 0.4930383 0.73014712 2 -1
0.10850203 0.50500798 0.73065603 2 -1
0.092921555 0.53923774 0.72526431 2 -1
0.087002575 0.57486093 0.71860826 2 -1
0.10206914 0.59605896 0.73210132 2 -1
0.099907875 0.61167669 0.72851157 2 -1
0.10835683 0.6585685 0.71925676 2 -1
0.088768423 0.6775291 0.7385838 2 -1
0.09599191 0.69261456 0.7125355 2 -1
0.10682338 0.74270618 0.71053779 2 -1
0.10542351 0.75316608 0.72230971 2 -1
0.10957569 0.78638083 0.7031737 2 -1
0.09147352 0.79628348 0.72139293 2 -1
0.096049547 0.83799326 0.71358764 2 -1
0.12768924 0.86245161 0.71936631 2 -1
0.10265553 0.87466246 0.70021951 2 -1
1.3618159 0.10735822 0.74833697 2 -1
1.3249424 0.087085545 0.72726369 2 -1
1.2937419 0.09020561 0.7381146 2 -1
1.2586533 0.096872151 0.71297687 2 -1
1.2484155 0.10564822 0.72375417 2 -1
1.2146424 0.086456835 0.71982831 2 -1
1.1937389 0.098371744 0.72728825 2 -1
1.1610861 0.083494425 0.72134048 2 -1
1.1234698 0.10105503 0.70884246 2 -1
1.119691 0.088931203 0.73104799 2 -1
1.0731981 0.10631996 0.70832121 2 -1
1.0489472 0.10492647 0.71436405 2 -1
1.0250185 0.09313637 0.7142185 2 -1
1.0009699 0.11254138 0.70266259 2 -1
0.97923523 0.11668569 0.69897223 2 -1
0.9643575 0.10572302 0.6767652 2 -1
0.9230842 0.10559458 0.71634591 2 -1
0.92077065 0.096419096 0.70771229 2 -1
0.89095938 0.0860551 0.72396398 2 -1
0.86664039 0.093919873 0.70718259 2 -1
0.83676064 0.081020057 0.71244073 2 -1
0.82453048 0.089687467 0.7175808 2 -1
0.81031132 0.10467094 0.71041864 2 -1
0.78209746 0.1007961 0.71277857 2 -1
0.76433241 0.10956931 0.73065221 2 -1
0.69872475 0.10662097 0.70690483 2 -1
0.70325959 0.11749494 0.73986065 2 -1
0.67231643 0.10735309 0.72431016 2 -1
0.66155374 0.12708688 0.71836895 2 -1
0.62589324 0.092667639 0.72576416 2 -1
0.60764527 0.11054921 0.73102427 2 -1
0.5844723 0.1076532 0.75368071 2 -1
0.53418481 0.12398827 0.73167419 2 -1
0.51237416 0.11347693 0.74834645 2 -1
0.49404335 0.10324109 0.74559808 2 -1
0.44099426 0.09626925 0.74804133 2 -1
0.42142659 0.11418629 0.74994433 2 -1
0.38800853 0.10319847 0.7754972 2 -1
0.36767799 0.11816722 0.74953759 2 -1
0.33666611 0.13469684 0.75361633 2 -1
0.28184277 0.11961383 0.76903141 2 -1
0.24565881 0.14239329 0.78702772 2 -1
0.20576882 0.12565953 0.80466169 2 -1
0.13792402 0.12091964 0.79870826 2 -1
0.088522851 0.12458354 0.81053686 2 -1
0.087694943 0.15379864 0.80786073 2 -1
0.082979381 0.18889219 0.78895175 2 -1
0.094636202 0.23624218 0.79887354 2 -1
0.088324189 0.30002588 0.77477849 2 -1
0.091938734 0.2988193 0.79217601 2 -1
0.097054958 0.36376297 0.78139859 2 -1
0.073265791 0.385001 0.77422982 2 -1
0.098558724 0.41531128 0.76652384 2 -1
0.09369719 0.44591534 0.74706674 2 -1
0.095942974 0.49416 0.73723161 2 -1
0.11381167 0.5332849 0.74148095 2 -1
0.10931051 0.53892517 0.74046123 2 -1
0.090954125 0.59040856 0.75143659 2 -1
0.087892413 0.62110817 0.74405277 2 -1
0.077478051 0.60943532 0.73284769 2 -1
0.097318113 0.67396843 0.7377888 2 -1
0.10226381 0.68872893 0.74353033 2 -1
0.096054673 0.72523284 0.73069096 2 -1
0.10259044 0.726969 0.73592788 2 -1
0.10972029 0.7536729 0.70487881 2 -1
0.11746818 0.77872324 0.72756618 2 -1
0.097395241 0.80580342 0.73292434 2 -1
0.10805392 0.84273839 0.71889633 2 -1
0.093095303 0.86905581 0.72692335 2 -1
0.09675473 0.8753944 0.74186736 2 -1
1.353323 0.10954791 0.76784492 2 -1
1.3075063 0.099730909 0.76588261 2 -1
1.2849789 0.0808599 0.74965411 2 -1
1.2580793 0.10242242 0.76410294 2 -1
1.2295636 0.094470203 0.75711632 2 -1
1.2013252 0.08855325 0.73037308 2 -1
1.1978562 0.088501513 0.73002434 2 -1
1.1498742 0.11092454 0.76034606 2 -1
1.1353409 0.08573699 0.73258162 2 -1
1.117574 0.092208326 0.72987258 2 -1
1.0749357 0.092227876 0.7497437 2 -1
1.0574363 0.10360211 0.75407666 2 -1
1.0339618 0.096803486 0.72729719 2 -1
1.0099038 0.085321307 0.74268728 2 -1
0.97903413 0.094638526 0.73485458 2 -1
0.96005177 0.10238999 0.71548247 2 -1
0.94875044 0.106673 0.71798992 2 -1
0.94061404 0.10124874 0.73129261 2 -1
0.87517869 0.1041798 0.71407217 2 -1
0.86333215 0.10075992 0.73253584 2 -1
0.87685841 0.11826319 0.71832657 2 -1
0.81588787 0.10625446 0.72285116 2 -1
0.79372543 0.10398364 0.73369169 2 -1
0.77468646 0.10473412 0.72160232 2 -1
0.73966604 0.10043955 0.72532862 2 -1
0.72610134 0.12906736 0.72348046 2 -1
0.71489275 0.097187996 0.73020315 2 -1
0.667382 0.10844147 0.73391902 2 -1
0.62899554 0.10023516 0.72262418 2 -1
0.60649288 0.12086856 0.73099661 2 -1
0.58997989 0.11526978 0.75888348 2 -1
0.56204057 0.10916775 0.74863827 2 -1
0.54083359 0.11383837 0.74235797 2 -1
0.52537757 0.10173434 0.74848312 2 -1
0.48742712 0.12273961 0.75937748 2 -1
0.45452565 0.13433599 0.75659609 2 -1
0.40492082 0.10264939 0.77451676 2 -1
0.37702572 0.11120099 0.77256578 2 -1
0.35972446 0.10583031 0.81045771 2 -1
0.33406895 0.11920714 0.78459799 2 -1
0.27539045 0.12509084 0.80527663 2 -1
0.22455281 0.1132071 0.81604952 2 -1
0.19375414 0.10828549 0.8252368 2 -1
0.16200322 0.12733895 0.83255696 2 -1
0.085008681 0.097263813 0.83703548 2 -1
0.070129156 0.14292544 0.83005673 2 -1
0.082053006 0.20127898 0.84069467 2 -1
0.11165196 0.22293496 0.82698166 2 -1
0.081377327 0.26997101 0.79582655 2 -1
0.1046024 0.30362111 0.81691623 2 -1
0.10687071 0.35916352 0.77860659 2 -1
0.099344909 0.37666118 0.78753889 2 -1
0.083170712 0.43394971 0.79057783 2 -1
0.094431281 0.46092004 0.77928096 2 -1
0.08688581 0.48897237 0.78615677 2 -1
0.09683913 0.5035795 0.77767462 2 -1
0.11536157 0.55116987 0.77802646 2 -1
0.095846057 0.56824517 0.78116381 2 -1
0.080499351 0.60987663 0.76423037 2 -1
0.10468489 0.64546263 0.73953253 2 -1
0.097063124 0.66157162 0.74700558 2 -1
0.085130155 0.68472683 0.73626554 2 -1
0.077391922 0.704808 0.73649293 2 -1
0.1114701 0.73600125 0.75841963 2 -1
0.11216486 0.75199211 0.73713505 2 -1
0.10284293 0.78915757 0.74787515 2 -1
0.10364306 0.82157481 0.75495172 2 -1
0.10122776 0.83119196 0.75636864 2 -1
0.1054346 0.87327933 0.73597389 2 -1
0.09861058 0.8770116 0.72538614 2 -1
1.3445419 0.11383075 0.78883791 2 -1
1.3272772 0.1055972 0.80195373 2 -1
1.2893865 0.080851257 0.77831185 2 -1
1.2620416 0.085592449 0.76543236 2 -1
1.2295833 0.087380111 0.77075231 2 -1
1.2138755 0.079774618 0.77287757 2 -1
1.1779374 0.089901865 0.76565653 2 -1
1.1666516 0.10693783 0.76722848 2 -1
1.1334436 0.092459202 0.75228375 2 -1
1.0956048 0.10020536 0.74642527 2 -1
1.0783449 0.11365819 0.72898352 2 -1
1.0382951 0.10406864 0.75590944 2 -1
1.040208 0.10531211 0.75347805 2 -1
1.0029418 0.093824446 0.74187386 2 -1
0.98893237 0.086067796 0.72209537 2 -1
0.95253795 0.090674639 0.75267339 2 -1
0.94315439 0.10036081 0.74808866 2 -1
0.90527499 0.09921217 0.74451363 2 -1
0.88813901 0.097428679 0.7471478 2 -1
0.87442011 0.10069013 0.73810059 2 -1
0.85027242 0.10237992 0.73240936 2 -1
0.82718885 0.094920218 0.73789096 2 -1
0.78698611 0.1131165 0.74784255 2 -1
0.78883737 0.098196328 0.7437889 2 -1
0.74603987 0.116795 0.7515893 2 -1
0.72967148 0.12289369 0.76325691 2 -1
0.70453024 0.10881805 0.75745654 2 -1
0.68680251 0.12928456 0.76484215 2 -1
0.65611792 0.10652256 0.76127541 2 -1
0.64196599 0.11001122 0.77163255 2 -1
0.60665905 0.12042278 0.76034057 2 -1
0.55936003 0.10325813 0.76457465 2 -1
0.54711729 0.10973352 0.78322464 2 -1
0.53096902 0.097439945 0.77180737 2 -1
0.49175727 0.10756314 0.79661036 2 -1
0.44526005 0.10684717 0.79210776 2 -1
0.41104919 0.10162878 0.78504848 2 -1
0.38762939 0.11611259 0.79134667 2 -1
0.36809891 0.12427503 0.81595886 2 -1
0.31783563 0.12228626 0.83742487 2 -1
0.26367921 0.11658877 0.83007479 2 -1
0.24145389 0.11677247 0.82102489 2 -1
0.20337689 0.098378122 0.8464281 2 -1
0.14812678 0.12173384 0.8487497 2 -1
0.10475558 0.10746199 0.87772644 2 -1
0.087810278 0.15268451 0.87988013 2 -1
0.089047074 0.18957567 0.84384978 2 -1
0.094084978 0.25373638 0.85601258 2 -1
0.08865577 0.28321338 0.8177892 2 -1
0.11302644 0.31580716 0.82005751 2 -1
0.093285143 0.34352374 0.82470524 2 -1
0.092695177 0.38465905 0.81001645 2 -1
0.091616154 0.41911227 0.82224321 2 -1
0.10776478 0.44585145 0.78304982 2 -1
0.09090203 0.48676819 0.79828763 2 -1
0.10924882 0.50609136 0.79226243 2 -1
0.095830441 0.54558885 0.77962458 2 -1
0.11422926 0.57067478 0.78459573 2 -1
0.092199564 0.60308504 0.78543836 2 -1
0.1016295 0.65293753 0.75484586 2 -1
0.088094532 0.64462113 0.77588594 2 -1
0.088109195 0.67362005 0.78331494 2 -1
0.098039627 0.69386816 0.78202856 2 -1
0.089107394 0.73836195 0.78779125 2 -1
0.10139084 0.75191474 0.7560755 2 -1
0.096152008 0.79596895 0.76126015 2 -1
0.11184359 0.82030284 0.76186943 2 -1
0.099728048 0.83910817 0.75212514 2 -1
0.099998057 0.87230605 0.76640749 2 -1
0.12039053 0.86100721 0.75706965 2 -1
1.3625085 0.084968209 0.81624937 2 -1
1.3331106 0.10446423 0.79116821 2 -1
1.29846 0.10864043 0.80427372 2 -1
1.2474718 0.10008699 0.80810833 2 -1
1.2263361 0.10496813 0.78363097 2 -1
1.2168883 0.083706975 0.76245779 2 -1
1.1868329 0.092488885 0.77848089 2 -1
1.1626754 0.091679871 0.79211652 2 -1
1.1350621 0.092359662 0.77502531 2 -1
1.1111848 0.084145725 0.7712757 2 -1
1.0880306 0.093888283 0.7605387 2 -1
1.0379395 0.10466307 0.7796942 2 -1
1.0346502 0.10658306 0.77668309 2 -1
1.0105977 0.1090458 0.76711631 2 -1
1.0071356 0.10302556 0.76340199 2 -1
0.98892379 0.099651337 0.7648707 2 -1
0.94872123 0.098606586 0.76407641 2 -1
0.90787596 0.092355132 0.74642414 2 -1
0.87889552 0.10639536 0.77533025 2 -1
0.87646532 0.10026944 0.76166081 2 -1
0.8618626 0.10879368 0.75008398 2 -1
0.8375693 0.11837244 0.77126521 2 -1
0.79378247 0.10642874 0.77413744 2 -1
0.77720392 0.10331672 0.76349509 2 -1
0.74219453 0.10737884 0.78562456 2 -1
0.73363721 0.11862117 0.77187407 2 -1
0.7064811 0.10995179 0.77465093 2 -1
0.65993071 0.10330081 0.76107436 2 -1
0.6733427 0.10965323 0.77433622 2 -1
0.6346004 0.11438215 0.78101325 2 -1
0.57727742 0.10652316 0.77968299 2 -1
0.57336187 0.10259163 0.79620218 2 -1
0.5632664 0.10735071 0.7911585 2 -1
0.51369596 0.13008797 0.81558216 2 -1
0.48936343 0.097618818 0.80502272 2 -1
0.44521832 0.10424352 0.80180603 2 -1
0.41837353 0.12394834 0.83201158 2 -1
0.37718791 0.11882991 0.82778776 2 -1
0.34715372 0.10126078 0.83213848 2 -1
0.31614989 0.11290979 0.83494306 2 -1
0.27557158 0.10195762 0.85387182 2 -1
0.24182183 0.1047588 0.84805804 2 -1
0.18209159 0.11956674 0.86323738 2 -1
0.15346158 0.10824549 0.87959164 2 -1
0.10412073 0.13137245 0.88812995 2 -1
0.095343709 0.16163349 0.89720786 2 -1
0.075443983 0.19229537 0.87816131 2 -1
0.10502189 0.22375441 0.85358095 2 -1
0.082020402 0.26930308 0.87900817 2 -1
0.090525687 0.31434381 0.84994596 2 -1
0.081329167 0.35964477 0.84216678 2 -1
0.093928576 0.38644218 0.84004748 2 -1
0.10070974 0.40594339 0.82013953 2 -1
0.079772532 0.44263411 0.81831205 2 -1
0.10826015 0.48451173 0.81543815 2 -1
0.093713582 0.51457947 0.8255477 2 -1
0.095457494 0.55637181 0.79971927 2 -1
0.10288501 0.57145786 0.80087149 2 -1
0.099654078 0.60394585 0.80386841 2 -1
0.10172129 0.62102306 0.79874551 2 -1
0.089903653 0.66179454 0.80505061 2 -1
0.11938411 0.69746852 0.79715681 2 -1
0.10168797 0.71952498 0.79043555 2 -1
0.097959518 0.74452424 0.78887379 2 -1
0.11037254 0.7664668 0.78366882 2 -1
0.11004847 0.77833635 0.78405565 2 -1
0.10994506 0.79508454 0.7763052 2 -1
0.086708426 0.83754212 0.79674602 2 -1
0.09131217 0.86164021 0.78164643 2 -1
0.1110754 0.88240027 0.78341353 2 -1
1.3543336 0.10517889 0.82227564 2 -1
1.3303285 0.093521535 0.82702196 2 -1
1.2848042 0.095142782 0.82564533 2 -1
1.2643232 0.10480559 0.80914044 2 -1
1.2525425 0.082530141 0.79458398 2 -1
1.2092808 0.11036754 0.80437195 2 -1
1.1891427 0.096440315 0.81342459 2 -1
1.1570132 0.08010602 0.80534524 2 -1
1.1264362 0.10074764 0.79717273 2 -1
1.1060656 0.11690152 0.81171811 2 -1
1.080391 0.081838727 0.79842949 2 -1
1.0473965 0.1092298 0.77323496 2 -1
1.0374352 0.10727453 0.7643497 2 -1
1.0270846 0.10519284 0.76781702 2 -1
0.99004102 0.10569644 0.78136837 2 -1
0.96885639 0.10250872 0.79090953 2 -1
0.94928402 0.12158841 0.76995313 2 -1
0.91073346 0.11219198 0.77845204 2 -1
0.88917363 0.10036045 0.76774073 2 -1
0.8654024 0.10532141 0.77991569 2 -1
0.82859343 0.10592723 0.80228829 2 -1
0.81841934 0.091400623 0.77381611 2 -1
0.80302584 0.10039806 0.78299987 2 -1
0.77975452 0.11509365 0.78745317 2 -1
0.76774669 0.10796523 0.78483546 2 -1
0.70952445 0.08854413 0.78627992 2 -1
0.69810247 0.11643004 0.79026973 2 -1
0.68469149 0.11956644 0.80440342 2 -1
0.65492201 0.11064023 0.79943311 2 -1
0.63545179 0.11105841 0.81158864 2 -1
0.6014716 0.11965722 0.78900784 2 -1
0.55285192 0.11383557 0.8022033 2 -1
0.53489631 0.12877965 0.79901898 2 -1
0.51932681 0.11268646 0.82082903 2 -1
0.48594481 0.11763346 0.8218441 2 -1
0.46630198 0.13248211 0.84240329 2 -1
0.43962425 0.12609684 0.84647304 2 -1
0.38072228 0.11578751 0.8585552 2 -1
0.33620137 0.10229236 0.8550024 2 -1
0.32363057 0.11292225 0.84825265 2 -1
0.2742731 0.13006872 0.86441988 2 -1
0.23049289 0.11237109 0.87025875 2 -1
0.19320822 0.11972266 0.88903081 2 -1
0.15147042 0.11777681 0.91173196 2 -1
0.10046846 0.12636715 0.91033101 2 -1
0.085179925 0.15193653 0.92256141 2 -1
0.10090506 0.19096023 0.89389288 2 -1
0.098490655 0.22846478 0.89455068 2 -1
0.081871331 0.27423388 0.88676333 2 -1
0.094239712 0.31969583 0.88501608 2 -1
0.10068333 0.35861254 0.87203521 2 -1
0.10342175 0.38570744 0.85607982 2 -1
0.087773979 0.42372763 0.85735762 2 -1
0.097601473 0.44638014 0.85425878 2 -1
0.098388374 0.47750026 0.83909035 2 -1
0.092002988 0.51526189 0.83443218 2 -1
0.085094392 0.54058409 0.83976698 2 -1
0.097977519 0.56684327 0.83581376 2 -1
0.10444105 0.60961807 0.81395686 2 -1
0.11258495 0.62906396 0.80761015 2 -1
0.11292493 0.66007221 0.82909691 2 -1
0.097277045 0.67816043 0.80145407 2 -1
0.093917072 0.72718453 0.80588627 2 -1
0.095850706 0.71854055 0.79260314 2 -1
0.096870244 0.75386208 0.8011378 2 -1
0.094334245 0.78834879 0.82124358 2 -1
0.10987371 0.80650187 0.8076216 2 -1
0.10980326 0.83948916 0.81148171 2 -1
0.10212463 0.86923838 0.80500984 2 -1
0.092352509 0.88431579 0.78380895 2 -1
1.3647547 0.10000271 0.84250712 2 -1
1.3270761 0.10391623 0.84378046 2 -1
1.2936509 0.094534039 0.84306496 2 -1
1.2581213 0.096734643 0.85062063 2 -1
1.240169 0.09688282 0.83631229 2 -1
1.1951697 0.082151949 0.81036448 2 -1
1.1800575 0.099785507 0.81311488 2 -1
1.1515484 0.1041103 0.83311224 2 -1
1.1319265 0.11445886 0.82422417 2 -1
1.1071135 0.098983645 0.79748452 2 -1
1.0682889 0.095440388 0.814008 2 -1
1.0516365 0.086146176 0.81833375 2 -1
1.0385612 0.10193211 0.80415523 2 -1
1.0057679 0.0952456 0.80385387 2 -1
0.99637294 0.091392338 0.81565088 2 -1
0.95042008 0.096972287 0.79436159 2 -1
0.92516601 0.11805212 0.80686712 2 -1
0.92058676 0.097219825 0.78964055 2 -1
0.8828609 0.10470253 0.80558383 2 -1
0.86728168 0.09672457 0.82108068 2 -1
0.8549493 0.10106373 0.80527484 2 -1
0.81917048 0.10472029 0.81005406 2 -1
0.79858398 0.11712265 0.81554306 2 -1
0.77376443 0.10250193 0.81217265 2 -1
0.7523725 0.10389489 0.81881553 2 -1
0.71524882 0.10275686 0.81754452 2 -1
0.71109724 0.10806835 0.81390107 2 -1
0.6913864 0.10557747 0.81837559 2 -1
0.65115738 0.094574034 0.81967115 2 -1
0.61556095 0.095032871 0.81176949 2 -1
0.60319066 0.12186867 0.83446395 2 -1
0.56513339 0.10795784 0.8260386 2 -1
0.55019343 0.10796618 0.83263987 2 -1
0.54912531 0.12298566 0.83529282 2 -1
0.46598709 0.12525445 0.84114772 2 -1
0.46129835 0.10518616 0.85230541 2 -1
0.43667203 0.10413963 0.87563682 2 -1
0.39961469 0.12960339 0.86623359 2 -1
0.35000914 0.12710708 0.89036775 2 -1
0.28611374 0.11539638 0.89273447 2 -1
0.27474946 0.11751407 0.89191794 2 -1
0.2410441 0.12157637 0.91897196 2 -1
0.21332932 0.11692947 0.91680551 2 -1
0.14750952 0.11488378 0.92393672 2 -1
0.095276296 0.12671334 0.9463762 2 -1
0.089452267 0.16182989 0.9376387 2 -1
0.089078188 0.2144987 0.9325583 2 -1
0.095815003 0.24460632 0.91885227 2 -1
0.09173274 0.27696878 0.90909326 2 -1
0.095630646 0.3331427 0.88730603 2 -1
0.091117322 0.35036814 0.87915719 2 -1
0.10056078 0.37549037 0.89865643 2 -1
0.095523417 0.41236782 0.87335294 2 -1
0.097948253 0.45769781 0.86576378 2 -1
0.09321326 0.46022826 0.87436223 2 -1
0.11469823 0.51901937 0.84072828 2 -1
0.095986426 0.5442661 0.84334874 2 -1
0.096965432 0.56775641 0.84691083 2 -1
0.11456943 0.60555029 0.84596038 2 -1
0.11531764 0.62991083 0.83451676 2 -1
0.1090312 0.62806267 0.83690697 2 -1
0.10686213 0.67948622 0.84487355 2 -1
0.10458368 0.700822 0.83125579 2 -1
0.086415112 0.72912073 0.83124757 2 -1
0.10494888 0.75044221 0.81310105 2 -1
0.095993102 0.77835631 0.82054079 2 -1
0.1028651 0.80250162 0.83092195 2 -1
0.11024779 0.82085073 0.8230195 2 -1
0.10006094 0.85587275 0.80412078 2 -1
0.092223048 0.87299383 0.81881356 2 -1
1.3755424 0.08558315 0.87946993 2 -1
1.3025045 0.097095966 0.86352754 2 -1
1.2847953 0.10214174 0.84744704 2 -1
1.2784207 0.089026213 0.86365676 2 -1
1.2351084 0.095811188 0.8546319 2 -1
1.2157052 0.10684615 0.86205965 2 -1
1.1740843 0.11241388 0.83015633 2 -1
1.1589261 0.099517882 0.83280909 2 -1
1.1380035 0.10474902 0.82552773 2 -1
1.1063373 0.083755136 0.82122266 2 -1
1.0661919 0.099424005 0.85363656 2 -1
1.0802851 0.078918457 0.82689357 2 -1
1.0274473 0.095349073 0.83149219 2 -1
1.0122004 0.1122992 0.8298521 2 -1
0.98503554 0.089870691 0.80926192 2 -1
0.95164561 0.099621177 0.81650978 2 -1
0.95486677 0.089358807 0.81118691 2 -1
0.91079396 0.09866029 0.8135587 2 -1
0.88962311 0.11378789 0.82826197 2 -1
0.8709088 0.10034394 0.81309903 2 -1
0.85421181 0.095858157 0.82215357 2 -1
0.83545703 0.1007539 0.81940407 2 -1
0.79125285 0.11644292 0.83041328 2 -1
0.77982134 0.11184567 0.83072722 2 -1
0.74882179 0.099869013 0.82964075 2 -1
0.73134232 0.1031211 0.82659256 2 -1
0.69170666 0.11638284 0.83107615 2 -1
0.68005025 0.10373032 0.84585434 2 -1
0.64896023 0.10838342 0.81867731 2 -1
0.63015664 0.1372816 0.8508594 2 -1
0.60566425 0.11480325 0.85308492 2 -1
0.55764186 0.10421318 0.86342168 2 -1
0.54272687 0.092355669 0.85373485 2 -1
0.50368214 0.10308838 0.85020036 2 -1
0.47291166 0.10786372 0.86399472 2 -1
0.46470088 0.099560797 0.87827671 2 -1
0.40685254 0.11226487 0.89209217 2 -1
0.37616956 0.10539061 0.8673231 2 -1
0.35786754 0.13333654 0.89333147 2 -1
0.31669068 0.11318588 0.92124128 2 -1
0.26881468 0.10978293 0.91450733 2 -1
0.23459238 0.11981583 0.93226397 2 -1
0.17749101 0.11446673 0.9746536 2 -1
0.14076591 0.12062323 0.9613533 2 -1
0.092967331 0.11593747 0.97206509 2 -1
0.082727134 0.14998329 0.97227025 2 -1
0.097520947 0.17849815 0.9663142 2 -1
0.10774601 0.23599356 0.94487345 2 -1
0.06809783 0.26552349 0.94981754 2 -1
0.1045748 0.32356733 0.93133485 2 -1
0.080724299 0.34567803 0.90744215 2 -1
0.096169114 0.39718717 0.90144074 2 -1
0.09782356 0.42677897 0.90008855 2 -1
0.10800666 0.45068043 0.88875717 2 -1
0.099376917 0.49432766 0.90239894 2 -1
0.10339582 0.50721729 0.87293637 2 -1
0.098382235 0.54996669 0.87708604 2 -1
0.11265713 0.583161 0.86110908 2 -1
0.10945654 0.60280025 0.8610152 2 -1
0.096813023 0.60985386 0.86823046 2 -1
0.10276276 0.67874444 0.87897837 2 -1
0.088438749 0.65482557 0.85631311 2 -1
0.10179436 0.70595241 0.83266127 2 -1
0.10969812 0.73149526 0.84906363 2 -1
0.091980934 0.75764841 0.8382743 2 -1
0.087533355 0.78984171 0.83370352 2 -1
0.096347868 0.80483019 0.83919978 2 -1
0.097544014 0.83758664 0.84784609 2 -1
0.09716773 0.87056351 0.84691244 2 -1
0.097819805 0.86279702 0.84721303 2 -1
1.3409007 0.10949051 0.90386808 2 -1
1.3176749 0.08404547 0.89658284 2 -1
1.2958646 0.097395897 0.89057899 2 -1
1.2524031 0.088766813 0.88676929 2 -1
1.2329359 0.10249209 0.87314081 2 -1
1.2011255 0.097361684 0.87051177 2 -1
1.1911557 0.097904086 0.86525321 2 -1
1.1507046 0.10771531 0.87941939 2 -1
1.1306604 0.092395246 0.8628605 2 -1
1.1065677 0.10115957 0.8709752 2 -1
1.0630873 0.091286421 0.85799748 2 -1
1.0602448 0.10564512 0.83704054 2 -1
1.0469856 0.098539054 0.8389551 2 -1
1.0133482 0.10316807 0.85832793 2 -1
0.97444999 0.096935272 0.83053142 2 -1
0.9632653 0.10984534 0.84198689 2 -1
0.94323713 0.10002226 0.83262551 2 -1
0.9086144 0.10238469 0.83813131 2 -1
0.88411587 0.09277761 0.8444382 2 -1
0.87525439 0.10611367 0.83698761 2 -1
0.85438102 0.097443104 0.8368485 2 -1
0.81830376 0.1039288 0.84760487 2 -1
0.79008526 0.12871146 0.8455143 2 -1
0.77278829 0.099642277 0.83220589 2 -1
0.74965811 0.098151445 0.86670691 2 -1
0.73651719 0.11225104 0.85515839 2 -1
0.70410407 0.11762226 0.87002885 2 -1
0.66345227 0.10993665 0.87449288 2 -1
0.65135407 0.10944581 0.87362856 2 -1
0.62712884 0.10712445 0.87682676 2 -1
0.60093069 0.099357247 0.86627489 2 -1
0.55766737 0.12062192 0.86915588 2 -1
0.53930259 0.11275035 0.89070296 2 -1
0.5069958 0.120332 0.89182258 2 -1
0.48983783 0.099232078 0.89443117 2 -1
0.44288206 0.099763453 0.90550315 2 -1
0.43177444 0.10809362 0.91218781 2 -1
0.38911337 0.11724454 0.93734729 2 -1
0.35334533 0.11743683 0.90273571 2 -1
0.30793405 0.12764776 0.93852717 2 -1
0.286098 0.11686039 0.93301952 2 -1
0.23351896 0.10649592 0.96323574 2 -1
0.18685865 0.1321944 0.97701836 2 -1
0.15027416 0.11949062 0.99544096 2 -1
0.10608113 0.1169942 1.0175698 2 -1
0.092818856 0.16268897 0.98032606 2 -1
0.10983902 0.19426161 0.99037874 2 -1
0.10153723 0.25718904 0.97781193 2 -1
0.080852985 0.2827791 0.95594245 2 -1
0.10877192 0.32365888 0.93982148 2 -1
0.096578658 0.33992922 0.93321276 2 -1
0.10818464 0.38322991 0.93089956 2 -1
0.091265738 0.42113781 0.9295885 2 -1
0.10195404 0.44679517 0.92060757 2 -1
0.10378295 0.49500376 0.90896106 2 -1
0.10573518 0.51883096 0.89568764 2 -1
0.095242262 0.5711993 0.9010306 2 -1
0.10039324 0.56041014 0.88096035 2 -1
0.090807915 0.60657418 0.88955641 2 -1
0.094964206 0.61336958 0.88529253 2 -1
0.086444616 0.66055632 0.87905252 2 -1
0.11983734 0.69420135 0.88149583 2 -1
0.098243415 0.73698199 0.89418304 2 -1
0.10868841 0.74333322 0.8522945 2 -1
0.092341781 0.76591969 0.87123108 2 -1
0.12080151 0.79901016 0.86974418 2 -1
0.10009539 0.79228586 0.87621057 2 -1
0.10818583 0.8537209 0.85667169 2 -1
0.098974824 0.85625815 0.85637122 2 -1
0.12357616 0.87363541 0.84447986 2 -1
1.3592649 0.099461257 0.91370499 2 -1
1.3375336 0.094690025 0.90610898 2 -1
1.3052833 0.08782351 0.89287221 2 -1
1.2791436 0.09954232 0.91456211 2 -1
1.2294226 0.10494661 0.89701909 2 -1
1.2139531 0.11227793 0.89081776 2 -1
1.187613 0.10259646 0.88072854 2 -1
1.138793 0.098201513 0.86906826 2 -1
1.1352477 0.10936815 0.86881769 2 -1
1.1014526 0.10970569 0.87035513 2 -1
1.0885954 0.099312425 0.86642534 2 -1
1.0563517 0.096089363 0.84973133 2 -1
1.0362846 0.10889894 0.87531877 2 -1
1.0087087 0.090665281 0.86189795 2 -1
1.0006622 0.12187779 0.84869325 2 -1
0.955064 0.10880435 0.85027289 2 -1
0.94420421 0.10117561 0.84953463 2 -1
0.9302265 0.096540272 0.8595463 2 -1
0.90438223 0.080041826 0.86300766 2 -1
0.84786552 0.11102277 0.84305269 2 -1
0.83541149 0.11554044 0.87881887 2 -1
0.81249118 0.096782982 0.86433524 2 -1
0.80388111 0.11210817 0.83955967 2 -1
0.77197802 0.10880184 0.87024963 2 -1
0.74533975 0.10846645 0.86671853 2 -1
0.72063547 0.10401314 0.85981679 2 -1
0.71749425 0.091049254 0.87786889 2 -1
0.67156291 0.12075877 0.86090046 2 -1
0.65241718 0.10327733 0.89610648 2 -1
0.6389271 0.11548644 0.88559604 2 -1
0.5903672 0.10937685 0.89113295 2 -1
0.58123767 0.1114068 0.88613129 2 -1
0.5346626 0.11054552 0.91318578 2 -1
0.52418226 0.10422075 0.90404558 2 -1
0.48706764 0.12452829 0.91198575 2 -1
0.47559458 0.11523294 0.91793275 2 -1
0.41390395 0.11036015 0.91961104 2 -1
0.38447982 0.115973 0.94502234 2 -1
0.36021 0.12318742 0.9601317 2 -1
0.29826874 0.11718541 0.96225381 2 -1
0.26600432 0.1134901 0.98245585 2 -1
0.23333216 0.11330378 0.9866358 2 -1
0.17590553 0.11708665 0.98912573 2 -1
0.13376909 0.099783003 1.0173446 2 -1
0.099560022 0.14437068 1.0298856 2 -1
0.095278263 0.15507507 1.0246521 2 -1
0.071938813 0.20098144 1.0089997 2 -1
0.097895682 0.23966378 0.99063873 2 -1
0.096577704 0.26883847 0.98113787 2 -1
0.093897462 0.32408351 0.98624754 2 -1
0.099259794 0.34333968 0.97055042 2 -1
0.10687202 0.38746935 0.95990217 2 -1
0.10403275 0.42789346 0.95647293 2 -1
0.11639917 0.44479835 0.93334842 2 -1
0.090449452 0.47173816 0.94054019 2 -1
0.10348886 0.50767314 0.93674088 2 -1
0.10312843 0.54929948 0.93302155 2 -1
0.092683911 0.56110162 0.93630141 2 -1
0.094682395 0.60946643 0.91881561 2 -1
0.080508411 0.62613755 0.89510393 2 -1
0.08831507 0.65555716 0.89659119 2 -1
0.098373771 0.68341792 0.91445148 2 -1
0.10673451 0.70656824 0.893363 2 -1
0.11552685 0.74266863 0.89759016 2 -1
0.10605603 0.76478684 0.88035822 2 -1
0.099164546 0.79439062 0.90191603 2 -1
0.11551571 0.81325161 0.88530433 2 -1
0.11337316 0.83290207 0.88789392 2 -1
0.11199737 0.86106533 0.87926066 2 -1
0.096717477 0.86655509 0.88979328 2 -1
1.3639036 0.097113013 0.95710075 2 -1
1.3310276 0.082489073 0.93491077 2 -1
1.2919605 0.097449124 0.92993784 2 -1
1.2578589 0.1052267 0.91440725 2 -1
1.2204627 0.10831708 0.93615913 2 -1
1.2070247 0.11347413 0.8979336 2 -1
1.1895936 0.10423589 0.91185826 2 -1
1.1648797 0.075275898 0.90143752 2 -1
1.1270974 0.10293871 0.88840395 2 -1
1.1186864 0.10667789 0.88065815 2 -1
1.0944265 0.10001844 0.9025808 2 -1
1.0659802 0.11167002 0.8909868 2 -1
1.0367312 0.10118586 0.87576675 2 -1
1.0249379 0.10967243 0.8781507 2 -1
0.97540653 0.089181721 0.87665319 2 -1
0.97094131 0.0928455 0.87111509 2 -1
0.94045621 0.091503561 0.86466008 2 -1
0.91684169 0.09788388 0.88820291 2 -1
0.89832348 0.1029954 0.88973784 2 -1
0.86051393 0.094798863 0.8789075 2 -1
0.83912981 0.1086784 0.86374271 2 -1
0.81824672 0.10075194 0.88415509 2 -1
0.8045001 0.10335153 0.88613403 2 -1
0.75957906 0.11026698 0.90624857 2 -1
0.75162882 0.089547157 0.90028512 2 -1
0.72711378 0.11041772 0.91930532 2 -1
0.70621729 0.095530033 0.88264 2 -1
0.68228281 0.11165148 0.89476383 2 -1
0.64373374 0.11878663 0.90879107 2 -1
0.62992418 0.10341263 0.9062835 2 -1
0.60051179 0.10545307 0.92865193 2 -1
0.58039296 0.11489803 0.90522051 2 -1
0.54629129 0.12036741 0.92328352 2 -1
0.50080252 0.11694396 0.92298365 2 -1
0.47774446 0.10447109 0.9476614 2 -1
0.46709323 0.12314129 0.93585455 2 -1
0.42635745 0.12083232 0.96320188 2 -1
0.40327269 0.1282652 0.95697892 2 -1
0.33966917 0.10641199 0.9831903 2 -1
0.30062872 0.11870939 0.99478745 2 -1
0.2823813 0.084427357 1.0110986 2 -1
0.23090249 0.11364412 1.0200386 2 -1
0.20241028 0.12433589 1.0389941 2 -1
0.14877713 0.13307446 1.0519527 2 -1
0.093643248 0.12358165 1.0510802 2 -1
0.090203643 0.18203956 1.0553415 2 -1
0.092545748 0.20567244 1.0212141 2 -1
0.097984314 0.23937809 1.0148411 2 -1
0.087713063 0.28284168 1.0110832 2 -1
0.092767775 0.30439764 1.0106262 2 -1
0.090242863 0.34228891 0.9878794 2 -1
0.082081258 0.38589102 0.97689879 2 -1
0.10458684 0.42821676 0.97282434 2 -1
0.10732251 0.4507457 0.97056997 2 -1
0.1083858 0.48728436 0.94845724 2 -1
0.073976696 0.52475405 0.94927281 2 -1
0.086285651 0.53571832 0.93967211 2 -1
0.10734683 0.58176899 0.94469678 2 -1
0.11101437 0.62054384 0.94704574 2 -1
0.11622465 0.63025558 0.94392514 2 -1
0.093760848 0.65757072 0.92434072 2 -1
0.10858947 0.67689872 0.91226971 2 -1
0.098261178 0.70604861 0.92525983 2 -1
0.10314882 0.73873448 0.91546452 2 -1
0.11637348 0.76216435 0.90474385 2 -1
0.11513346 0.78342402 0.92387652 2 -1
0.10610271 0.80170298 0.90340972 2 -1
0.11375946 0.83381516 0.91204095 2 -1
0.1023106 0.86269361 0.914671 2 -1
0.10309786 0.85843945 0.91725183 2 -1
1.3483396 0.089718699 0.9712919 2 -1
1.3324618 0.10599983 0.97015643 2 -1
1.2908349 0.10384244 0.96676826 2 -1
1.259604 0.09726274 0.95106369 2 -1
1.2422345 0.087127149 0.92593288 2 -1
1.1937259 0.11172885 0.91610253 2 -1
1.1602228 0.10334653 0.93688488 2 -1
1.1675781 0.097478032 0.91056412 2 -1
1.1306382 0.099451244 0.9187305 2 -1
1.1073276 0.10110921 0.92155355 2 -1
1.070756 0.10988134 0.90237689 2 -1
1.0484818 0.099577546 0.91683793 2 -1
1.0337936 0.10928035 0.91709912 2 -1
0.99700552 0.096537828 0.90882933 2 -1
0.98487407 0.09668833 0.90641749 2 -1
0.93843764 0.10098386 0.89308196 2 -1
0.94228035 0.11101609 0.88460732 2 -1
0.91928899 0.092493415 0.88388824 2 -1
0.90541989 0.10299844 0.89408588 2 -1
0.86576748 0.088580668 0.90626925 2 -1
0.84515303 0.1084497 0.89117765 2 -1
0.80840403 0.11942112 0.91520071 2 -1
0.8022573 0.10658079 0.91505313 2 -1
0.78957701 0.10269356 0.9114337 2 -1
0.74676585 0.090183914 0.91416252 2 -1
0.73288691 0.10566783 0.91126174 2 -1
0.69874299 0.12388587 0.90087688 2 -1
0.65827084 0.11946994 0.91267419 2 -1
0.64402699 0.13573647 0.92993629 2 -1
0.63921624 0.11402941 0.93613929 2 -1
0.59107637 0.11015683 0.93782055 2 -1
0.57811582 0.096805513 0.94000626 2 -1
0.54036117 0.11340106 0.95152545 2 -1
0.52228963 0.10977966 0.93305957 2 -1
0.48244965 0.11098051 0.96514988 2 -1
0.47406507 0.11324459 0.97623444 2 -1
0.41525179 0.12787199 1.002025 2 -1
0.38325477 0.10813415 0.99826837 2 -1
0.33972025 0.11506552 1.0090768 2 -1
0.31755024 0.11343014 1.0314602 2 -1
0.27467048 0.12047917 1.0250311 2 -1
0.24391997 0.11478192 1.0507401 2 -1
0.20908368 0.1172781 1.0452074 2 -1
0.14604354 0.1107077 1.079002 2 -1
0.080071867 0.10650623 1.1160376 2 -1
0.093813598 0.14413357 1.0756587 2 -1
0.087198436 0.18980515 1.0674822 2 -1
0.10023731 0.25428742 1.0708822 2 -1
0.1107291 0.27740276 1.0382556 2 -1
0.093618512 0.3036952 1.053001 2 -1
0.098869801 0.34455705 1.0383173 2 -1
0.10546798 0.37542146 1.0180975 2 -1
0.10142279 0.41555494 0.98467052 2 -1
0.087727845 0.43709242 1.0037978 2 -1
0.10799772 0.49559355 0.98967755 2 -1
0.10715181 0.51674742 0.96501309 2 -1
0.097500563 0.52996528 0.96683204 2 -1
0.095594943 0.56767392 0.96335191 2 -1
0.098268628 0.59692371 0.96786869 2 -1
0.095770299 0.63333637 0.95975637 2 -1
0.10324824 0.64308798 0.95153183 2 -1
0.10070693 0.68383789 0.94477808 2 -1
0.11163825 0.71168661 0.96591365 2 -1
0.11279148 0.75536108 0.96245682 2 -1
0.10717875 0.76641726 0.96398365 2 -1
0.10248518 0.79433501 0.94023359 2 -1
0.086672425 0.79050344 0.92290103 2 -1
0.11871856 0.83410436 0.92720711 2 -1
0.11926103 0.84440607 0.93947285 2 -1
0.10618526 0.87601364 0.92279041 2 -1
1.3532286 0.096448839 0.98454463 2 -1
1.3227886 0.082761884 0.97524369 2 -1
1.2841775 0.082930744 0.95704603 2 -1
1.2768326 0.094034195 0.96041369 2 -1
1.2382249 0.093349934 0.94163078 2 -1
1.1874993 0.085482299 0.93200004 2 -1
1.2020888 0.10416913 0.92831433 2 -1
1.1516783 0.098826945 0.93835407 2 -1
1.1153185 0.095497787 0.93384945 2 -1
1.1157272 0.080126226 0.92992365 2 -1
1.0842162 0.084101677 0.94507551 2 -1
1.0551481 0.091785073 0.9307605 2 -1
1.021301 0.094108105 0.91529989 2 -1
1.0152591 0.12032962 0.93207824 2 -1
0.97986603 0.097021759 0.92330718 2 -1
0.97131085 0.09722352 0.90058327 2 -1
0.92850775 0.10905403 0.92522848 2 -1
0.91208434 0.10201043 0.91108149 2 -1
0.89276278 0.10661131 0.91954088 2 -1
0.85487533 0.089878023 0.93215644 2 -1
0.85662794 0.11615044 0.93721664 2 -1
0.83584434 0.090563297 0.92131722 2 -1
0.79798043 0.11311334 0.95138514 2 -1
0.79171479 0.10994828 0.94005191 2 -1
0.74494928 0.1264419 0.93084538 2 -1
0.73334432 0.10968649 0.91671968 2 -1
0.69350982 0.1132313 0.91344231 2 -1
0.67428076 0.090786994 0.92673928 2 -1
0.64855719 0.095845163 0.92697579 2 -1
0.62599111 0.095470071 0.94591272 2 -1
0.58678389 0.10768187 0.95656884 2 -1
0.56473571 0.10907686 0.95861888 2 -1
0.52640593 0.11816883 0.94666886 2 -1
0.50648761 0.11415625 0.96871555 2 -1
0.47942173 0.10917008 0.98516476 2 -1
