# .PCD v0.7 - Point Cloud Data file format
VERSION 0.7
FIELDS x y z label
SIZE 4 4 4 4
TYPE F F F U
COUNT 1 1 1 1
WIDTH 1332
HEIGHT 1
VIEWPOINT 3.99999 1.99999 0.0997651 1 0 0 0
POINTS 1332
DATA ascii
5.1416097 1.8689923 0.32958859 3 -1
5.1066699 1.8591906 0.32378271 3 -1
5.0790381 1.822911 0.31743544 3 -1
5.0911436 1.7940046 0.33574849 3 -1
5.0583587 1.7604048 0.31972831 3 -1
5.0506334 1.7453675 0.33986545 3 -1
5.0326037 1.7192934 0.33581144 3 -1
5.0203872 1.6805483 0.31698567 3 -1
5.0259562 1.6567599 0.32434618 3 -1
5.020339 1.6318033 0.32605463 3 -1
5.0205083 1.6097564 0.3308897 3 -1
5.007041 1.5647209 0.30021209 3 -1
4.990715 1.5568092 0.32397693 3 -1
4.9954996 1.5100192 0.31214958 3 -1
4.9894781 1.4935696 0.31726891 3 -1
4.9971757 1.4394083 0.33093768 3 -1
5.0054693 1.4041443 0.3202163 3 -1
4.9979024 1.3523858 0.32354504 3 -1
4.9983044 1.3069029 0.31841773 3 -1
5.0181665 1.252732 0.30373728 3 -1
5.0557637 1.1753812 0.28623223 3 -1
5.1015034 1.0792155 0.28656137 3 -1
5.762557 0.34973371 0.12292641 1 -1
5.690258 0.30301881 0.12318453 1 -1
5.6541262 0.28383815 0.1149289 1 -1
5.5995493 0.23795283 0.11753228 1 -1
5.5488372 0.18582511 0.12133622 1 -1
5.4840918 0.1559217 0.12136304 1 -1
5.4313173 0.11359251 0.10869676 1 -1
5.3725066 0.069790959 0.12274349 1 -1
5.289 0.094278097 0.1379168 1 -1
5.2496624 0.095682383 0.12640297 1 -1
4.751893 3.0040357 0.32912779 3 -1
4.7952585 2.9852464 0.31557786 3 -1
4.8253069 2.9976134 0.31704277 3 -1
4.8757944 3.0053518 0.29825431 3 -1
4.9391723 3.0319633 0.31018871 3 -1
5.0045381 3.029552 0.31343904 3 -1
5.0623002 3.0499194 0.3140153 3 -1
5.2048969 3.1134357 0.26588625 3 -1
5.3476124 3.2159929 0.25812781 3 -1
6.0905671 3.8152578 0.14246148 1 -1
6.1410866 3.7591233 0.12985891 1 -1
6.2092228 3.7181053 0.12921637 1 -1
6.254952 3.6270738 0.1399022 1 -1
6.2880282 3.587121 0.13302338 1 -1
6.3461094 3.5072169 0.13293809 1 -1
6.3878155 3.4544921 0.13943145 1 -1
6.4469328 3.390198 0.13702217 1 -1
6.467103 3.3117154 0.11164904 1 -1
6.5164351 3.2248263 0.14029637 1 -1
6.5377464 3.1628203 0.11171079 1 -1
6.5817146 3.0945537 0.14138162 1 -1
6.5819063 3.0157723 0.12606087 1 -1
6.6559348 2.9446998 0.13559365 1 -1
6.6685781 2.8712091 0.10947746 1 -1
6.6881318 2.7856829 0.13163987 1 -1
6.7170572 2.7201934 0.12975314 1 -1
6.7277498 2.632782 0.12391505 1 -1
6.7635651 2.5507016 0.13317457 1 -1
6.7897758 2.4710436 0.13411412 1 -1
6.7867594 2.3865697 0.12620172 1 -1
6.7969599 2.3088555 0.1237649 1 -1
5.4107723 2.1192527 0.31046516 3 -1
5.3165665 2.0586762 0.31036246 3 -1
5.2811589 2.0118339 0.32522422 3 -1
5.2271404 1.9929377 0.32314926 3 -1
5.2064862 1.9788899 0.35172036 3 -1
5.1653624 1.9460338 0.35405919 3 -1
5.1598301 1.911793 0.33788174 3 -1
5.125824 1.8733423 0.34394976 3 -1
5.0850482 1.8555845 0.34391195 3 -1
5.0806193 1.8339934 0.34796739 3 -1
5.060081 1.7864164 0.35365105 3 -1
5.0612669 1.7728922 0.34094775 3 -1
5.0457902 1.7453601 0.33538488 3 -1
5.0523696 1.7049464 0.35089076 3 -1
5.0335631 1.7018367 0.35017261 3 -1
5.0122848 1.6453965 0.34728789 3 -1
5.0034723 1.6589718 0.35928223 3 -1
5.010582 1.6101688 0.35211903 3 -1
4.9888296 1.5826302 0.34485108 3 -1
4.9932947 1.5412977 0.33629191 3 -1
4.9889297 1.5175354 0.32226294 3 -1
4.9972181 1.4971616 0.34707266 3 -1
4.9944692 1.4393337 0.33545852 3 -1
4.9901276 1.3888401 0.33765006 3 -1
4.9851408 1.3692603 0.32498455 3 -1
5.0238023 1.3080316 0.3247869 3 -1
5.0264602 1.2778356 0.33016157 3 -1
5.053081 1.1800044 0.32164374 3 -1
5.1194673 1.0854135 0.28354514 3 -1
6.0015173 0.12835813 0.12411898 1 -1
5.9523454 0.073190331 0.11710262 1 -1
5.8305736 0.059976935 0.14563757 2 -1
5.7404399 0.066377521 0.16372642 2 -1
5.6215191 0.064221263 0.15238994 2 -1
5.5443497 0.080750465 0.14643553 2 -1
5.4528155 0.081212759 0.14811134 2 -1
5.3913784 0.082730055 0.16261759 2 -1
5.2806897 0.068847179 0.19760278 2 -1
5.2365098 0.084612131 0.1962525 2 -1
4.7448874 2.9898484 0.3470822 3 -1
4.796742 2.9945996 0.34717298 3 -1
4.836956 2.9950957 0.34417528 3 -1
4.8874688 3.0104632 0.33460367 3 -1
4.944211 3.0198846 0.33386821 3 -1
5.0150156 3.0350714 0.33251506 3 -1
5.0836444 3.0557628 0.31757447 3 -1
5.2032781 3.1015494 0.31156805 3 -1
5.3478279 3.2193406 0.29220313 3 -1
6.4527903 4.1700373 0.13215235 1 -1
6.5169926 4.1089158 0.14113879 1 -1
6.568409 4.0255795 0.12969056 1 -1
6.6256151 3.9474463 0.13210303 1 -1
6.6816969 3.8729773 0.12611818 1 -1
6.7424302 3.7888064 0.15125611 1 -1
6.7836494 3.6889372 0.12216577 1 -1
6.844173 3.6348143 0.14324719 1 -1
6.8995934 3.55655 0.13552234 1 -1
6.9417644 3.4447222 0.13056937 1 -1
6.9881115 3.3601129 0.13989449 1 -1
7.0255637 3.3036156 0.13532314 1 -1
7.0665817 3.2172077 0.11389157 1 -1
7.0921016 3.1095095 0.13924089 1 -1
7.1153069 3.0100341 0.13290966 1 -1
7.1193004 2.929285 0.13518739 1 -1
7.1240578 2.8357377 0.13281497 1 -1
7.1263752 2.747323 0.14295495 1 -1
7.1110735 2.6405928 0.15597579 1 -1
7.0993567 2.5406225 0.16517693 1 -1
7.1158638 2.4273129 0.1575371 1 -1
7.1197491 2.3482478 0.16483203 1 -1
5.4131718 2.1333151 0.33318344 3 -1
5.319499 2.0487878 0.34559718 3 -1
5.2837238 2.0132692 0.33815777 3 -1
5.2312126 1.9900557 0.34957641 3 -1
5.2021518 1.9560245 0.33730185 3 -1
5.1780663 1.9430385 0.36590034 3 -1
5.162745 1.9134423 0.34502494 3 -1
5.1337347 1.8768462 0.34886017 3 -1
5.1008549 1.8381176 0.3507559 3 -1
5.0863538 1.8316536 0.35873765 3 -1
5.0725918 1.7842057 0.36734629 3 -1
5.0652871 1.760555 0.36956242 3 -1
5.0484676 1.7378356 0.371461 3 -1
5.045577 1.7143233 0.39539957 3 -1
5.0194678 1.6858214 0.36378744 3 -1
5.0172062 1.650209 0.37172395 3 -1
5.0111299 1.6295788 0.35961974 3 -1
4.9796352 1.5955752 0.37809488 3 -1
5.0079708 1.5775123 0.37431258 3 -1
5.0012679 1.5354738 0.351221 3 -1
5.0095911 1.5073515 0.36884692 3 -1
4.9779191 1.4615592 0.35520276 3 -1
4.990438 1.4677289 0.35783795 3 -1
4.9910593 1.4016607 0.35524118 3 -1
4.9961514 1.3655403 0.35223112 3 -1
5.015491 1.2920442 0.35280633 3 -1
5.0264692 1.2725716 0.36808872 3 -1
5.0579095 1.1893313 0.33658129 3 -1
5.0957427 1.0689921 0.33583337 3 -1
6.0801854 0.050759315 0.18484247 2 -1
5.9499722 0.054543734 0.17504984 2 -1
5.8504725 0.068040371 0.19346333 2 -1
5.7363563 0.075209379 0.20172548 2 -1
5.6336374 0.053966999 0.19228038 2 -1
5.5270405 0.081484675 0.20602882 2 -1
5.4301362 0.089895129 0.20867309 2 -1
5.3747997 0.070652604 0.22054292 2 -1
5.2836614 0.066827059 0.23747051 2 -1
5.2246304 0.09606719 0.24330941 2 -1
4.7436624 2.9774899 0.37754726 3 -1
4.7878613 2.9959459 0.35703084 3 -1
4.8489161 2.9782207 0.37249619 3 -1
4.8919153 3.0101042 0.35385644 3 -1
4.9475145 3.0161014 0.35440734 3 -1
4.9925847 3.033679 0.35480139 3 -1
5.087585 3.0552511 0.35819265 3 -1
5.1805019 3.0970769 0.34791127 3 -1
5.3506765 3.2120004 0.34119588 3 -1
6.9675789 4.6710677 0.12866858 1 -1
7.03689 4.5763154 0.17209297 2 -1
7.1292086 4.4775176 0.15292802 2 -1
7.1488152 4.3398089 0.13930413 2 -1
7.1515269 4.2037954 0.14062077 2 -1
7.1531482 4.0730267 0.15136629 2 -1
7.1449418 3.9258084 0.16471148 2 -1
7.1442466 3.8098173 0.17586359 2 -1
7.1246548 3.666697 0.17051747 2 -1
7.1320152 3.5740333 0.1898745 2 -1
7.1313992 3.4562988 0.17791784 2 -1
7.1279616 3.3340213 0.19349325 2 -1
7.1183944 3.2258606 0.18997812 2 -1
7.1197858 3.1336327 0.22201866 2 -1
7.1139278 2.9994807 0.19524628 2 -1
7.1140661 2.9175868 0.18922076 2 -1
7.121171 2.8209403 0.21690097 2 -1
7.1210532 2.7231743 0.19828877 2 -1
7.1098719 2.6306043 0.21977755 2 -1
7.088871 2.536881 0.20251316 2 -1
7.1197023 2.4560184 0.21090025 2 -1
7.1120434 2.3656569 0.21687511 2 -1
5.4058218 2.0851123 0.35686526 3 -1
5.3182049 2.0559666 0.35909444 3 -1
5.2654085 2.0419664 0.37114096 3 -1
5.2347336 1.9932631 0.38105106 3 -1
5.1974487 1.9541136 0.36763471 3 -1
5.1779799 1.9173694 0.38890895 3 -1
5.1628404 1.8960419 0.40418437 3 -1
5.1164284 1.8813243 0.3770808 3 -1
5.109807 1.846081 0.3906416 3 -1
5.0886531 1.8401481 0.38276598 3 -1
5.0784602 1.7685168 0.37589085 3 -1
5.0703921 1.7870235 0.38259488 3 -1
5.0396776 1.7534456 0.40201408 3 -1
5.0400958 1.7335677 0.39818823 3 -1
5.0163841 1.6916417 0.39480823 3 -1
5.030838 1.6726213 0.3833527 3 -1
5.0196171 1.6404122 0.40055618 3 -1
4.9897757 1.6085296 0.39072615 3 -1
5.0003319 1.5816495 0.38792798 3 -1
4.9929719 1.566838 0.39221865 3 -1
4.9758115 1.5217745 0.38316151 3 -1
5.0025058 1.5000719 0.3769052 3 -1
5.0129967 1.4352162 0.38178501 3 -1
4.990427 1.4029474 0.38300392 3 -1
4.9947329 1.3601604 0.37674946 3 -1
5.0065999 1.3206754 0.37664688 3 -1
5.018147 1.2671349 0.37433466 3 -1
5.0576982 1.1747127 0.37083593 3 -1
5.1193113 1.0771997 0.35443062 3 -1
6.0656514 0.066162348 0.22875106 2 -1
5.9429817 0.064440489 0.21814594 2 -1
5.8280764 0.068831563 0.2283183 2 -1
5.728282 0.068840623 0.24541283 2 -1
5.6338415 0.077245116 0.25815248 2 -1
5.5574493 0.078519344 0.25692561 2 -1
5.4542837 0.068187475 0.27349052 2 -1
5.3790369 0.084054828 0.27127147 2 -1
5.2776608 0.089002013 0.27794915 2 -1
5.2506394 0.094905257 0.27299029 2 -1
4.7587242 3.0104039 0.38968897 3 -1
4.7660198 2.9855525 0.3939423 3 -1
4.8425016 2.9917245 0.40970102 3 -1
4.8788939 2.9948957 0.37431711 3 -1
4.9239454 3.0194573 0.38877374 3 -1
5.0113783 3.0249257 0.38526362 3 -1
5.0996051 3.0631952 0.39067188 3 -1
5.1757288 3.0853448 0.37308788 3 -1
5.3416843 3.1860688 0.35428199 3 -1
7.1441059 4.8408265 0.21333978 2 -1
7.1651821 4.6467848 0.20509547 2 -1
7.1351008 4.491725 0.21750107 2 -1
7.1349907 4.3446736 0.23367548 2 -1
7.1429939 4.1936655 0.24386665 2 -1
7.146903 4.0554867 0.24089167 2 -1
7.1413984 3.9427896 0.24922949 2 -1
7.1257086 3.7938881 0.24869826 2 -1
7.1221924 3.6852741 0.25368831 2 -1
7.129096 3.5545106 0.2636016 2 -1
7.1173196 3.4288158 0.24575043 2 -1
7.1269116 3.3353398 0.26272473 2 -1
7.1322718 3.2415957 0.26297995 2 -1
7.1196022 3.1174438 0.27330112 2 -1
7.1418505 3.014003 0.27064532 2 -1
7.1266708 2.9276032 0.265625 2 -1
7.1262498 2.8171723 0.27831876 2 -1
7.0900092 2.7260885 0.26384079 2 -1
7.1090803 2.6173935 0.27151614 2 -1
7.115993 2.5433047 0.27855706 2 -1
7.1116753 2.4398456 0.27828503 2 -1
7.1157732 2.3529842 0.2817229 2 -1
5.4152045 2.1031117 0.3842026 3 -1
5.335247 2.0826807 0.39374256 3 -1
5.2736473 2.0377748 0.40270784 3 -1
5.2328305 1.998655 0.41031122 3 -1
5.1930842 1.9560447 0.39728373 3 -1
5.1746736 1.940686 0.40841058 3 -1
5.1358919 1.8990402 0.40600029 3 -1
5.0981946 1.8949363 0.39177051 3 -1
5.1106758 1.8469872 0.41333583 3 -1
5.0866265 1.8308662 0.42075041 3 -1
5.0587416 1.8077172 0.40533629 3 -1
5.0603571 1.7684414 0.41466191 3 -1
5.0383363 1.7418828 0.39789754 3 -1
5.0287514 1.7235527 0.42256653 3 -1
5.0128322 1.6892669 0.41821182 3 -1
5.0334578 1.6478126 0.40400374 3 -1
5.0039611 1.6408904 0.39358893 3 -1
5.0187073 1.6195438 0.40704563 3 -1
5.0057673 1.5743756 0.42117339 3 -1
4.9939351 1.5573194 0.41085202 3 -1
5.0037017 1.5090319 0.4211702 3 -1
4.9802504 1.4794204 0.41006327 3 -1
4.9910717 1.4428034 0.3967514 3 -1
5.0030389 1.4150643 0.39039102 3 -1
5.0176063 1.3624508 0.40653718 3 -1
4.9903908 1.3163247 0.41084385 3 -1
5.0108781 1.266201 0.39039603 3 -1
5.0567007 1.182264 0.38590142 3 -1
5.1281457 1.0828898 0.37488562 3 -1
6.0626583 0.065175533 0.29412425 2 -1
5.9558725 0.061742306 0.30656701 2 -1
5.8407516 0.058819413 0.31155556 2 -1
5.7456393 0.061651111 0.30554101 2 -1
5.6382012 0.062612772 0.32060975 2 -1
5.5562673 0.06962359 0.30459017 2 -1
5.4444089 0.08842206 0.30899104 2 -1
5.365911 0.070806384 0.33517325 2 -1
5.2886858 0.059123516 0.31604385 2 -1
5.2283049 0.12035191 0.32766724 2 -1
4.7508979 2.9800906 0.42385006 3 -1
4.783761 2.9873466 0.41177008 3 -1
4.8330655 2.9978619 0.41064951 3 -1
4.8955741 2.9938099 0.4123818 3 -1
4.9276533 3.022583 0.41011176 3 -1
5.0164237 3.0415797 0.4023068 3 -1
5.0639362 3.0515494 0.41209641 3 -1
5.1679935 3.0956881 0.40577963 3 -1
5.351315 3.2179325 0.41040197 3 -1
7.1381483 4.833817 0.28802297 2 -1
7.1411581 4.6581779 0.30914104 2 -1
7.158555 4.4980669 0.31562901 2 -1
7.1491613 4.3455553 0.31982476 2 -1
7.1346397 4.1928759 0.30514771 2 -1
7.1316032 4.0502768 0.32014778 2 -1
7.1351938 3.9296267 0.31670219 2 -1
7.1347871 3.7871218 0.33712745 2 -1
7.1388817 3.6834128 0.32660413 2 -1
7.1336823 3.5554032 0.331572 2 -1
7.1300764 3.4469001 0.32569173 2 -1
7.122189 3.3155499 0.33583122 2 -1
7.1176286 3.2231369 0.33724609 2 -1
7.1177454 3.1388519 0.33704105 2 -1
7.1266556 3.0146582 0.36396626 2 -1
7.1149454 2.917558 0.33703178 2 -1
7.1077957 2.8332436 0.33002126 2 -1
7.1079059 2.7417574 0.33512679 2 -1
7.136127 2.6192083 0.33086991 2 -1
7.1244478 2.5292859 0.34581053 2 -1
7.1162148 2.452317 0.33516479 2 -1
7.098331 2.3554506 0.34171402 2 -1
5.4074249 2.1082292 0.40095985 3 -1
5.3218474 2.0734332 0.41150114 3 -1
5.2708941 2.0306165 0.43348721 3 -1
5.208056 1.9747546 0.41738161 3 -1
5.1980858 1.9795775 0.43338749 3 -1
5.1727462 1.9249415 0.42429772 3 -1
5.1343803 1.9026166 0.45563078 3 -1
5.1012616 1.8805361 0.4277254 3 -1
5.1119437 1.8496934 0.41614878 3 -1
5.0922818 1.8248984 0.42965412 3 -1
5.0716515 1.7751389 0.43609142 3 -1
5.0824285 1.7823203 0.42106995 3 -1
5.0534306 1.7472205 0.42679527 3 -1
5.0361753 1.7129697 0.42213035 3 -1
5.0411749 1.6892645 0.43630388 3 -1
5.0048761 1.6391039 0.41764063 3 -1
5.0079865 1.6351995 0.43330204 3 -1
5.0094576 1.6135015 0.43373716 3 -1
5.0049586 1.5702881 0.4350675 3 -1
4.9956527 1.5557437 0.42469391 3 -1
4.9816713 1.5043628 0.42648232 3 -1
5.0002227 1.4925148 0.44138405 3 -1
4.9862552 1.4445372 0.43122992 3 -1
4.9982142 1.4030172 0.43287241 3 -1
5.023324 1.3662472 0.42754948 3 -1
5.0191846 1.3322964 0.41230384 3 -1
5.011344 1.2726276 0.42590845 3 -1
5.0390081 1.1898472 0.41887629 3 -1
5.1070037 1.0860865 0.40631279 3 -1
6.0670943 0.056316257 0.35355911 2 -1
5.9415178 0.059615493 0.35005534 2 -1
5.8393049 0.081429124 0.34551811 2 -1
5.7319965 0.065210223 0.3788017 2 -1
5.6466389 0.072275281 0.34894979 2 -1
5.5539999 0.057839513 0.3528434 2 -1
5.457531 0.075067759 0.36771429 2 -1
5.3910227 0.075792909 0.35896951 2 -1
5.2926712 0.068527818 0.35663235 2 -1
5.230629 0.10162282 0.38558283 2 -1
4.7413735 2.9813712 0.43552327 3 -1
4.7829971 2.9906657 0.45281497 3 -1
4.8323445 2.9886005 0.44467825 3 -1
4.8635449 3.0185657 0.46099481 3 -1
4.9386845 3.0131664 0.45087084 3 -1
5.0044255 3.0320532 0.45108935 3 -1
5.0814171 3.0625896 0.43103042 3 -1
5.1765394 3.1116867 0.41708913 3 -1
5.3382998 3.2066011 0.42628506 3 -1
7.1508865 4.8313565 0.40081018 2 -1
7.1397328 4.658844 0.38369769 2 -1
7.1431847 4.4913325 0.39077741 2 -1
7.1431141 4.3379045 0.39275604 2 -1
7.1397066 4.1796141 0.39756867 2 -1
7.1480813 4.0602002 0.40877533 2 -1
7.1351662 3.9316154 0.39920807 2 -1
7.1199412 3.80495 0.39404935 2 -1
7.1344976 3.6830254 0.39114732 2 -1
7.1247215 3.5568712 0.40277898 2 -1
7.1112852 3.4437971 0.41915578 2 -1
7.1232557 3.3358922 0.3959367 2 -1
7.1110802 3.2134204 0.39154118 2 -1
7.1109748 3.1248469 0.41503581 2 -1
7.1350856 3.0272474 0.41602606 2 -1
7.1256847 2.9041338 0.40665731 2 -1
7.0959935 2.8258538 0.41511267 2 -1
7.0905504 2.7153001 0.3908453 2 -1
7.1431236 2.6363978 0.41012722 2 -1
7.113781 2.5417604 0.40425739 2 -1
7.113595 2.4311681 0.40106863 2 -1
7.0974874 2.3515697 0.42016596 2 -1
5.423912 2.1082542 0.43603694 3 -1
5.3418989 2.0558031 0.44235665 3 -1
5.2407432 2.0225871 0.43824309 3 -1
5.2237706 1.9902164 0.42613494 3 -1
5.2001038 1.9799409 0.45553586 3 -1
5.1717296 1.9450552 0.44858265 3 -1
5.1457391 1.9047925 0.45325536 3 -1
5.1430702 1.8736526 0.45090359 3 -1
5.1104755 1.8408002 0.44056246 3 -1
5.0903335 1.8172865 0.44486007 3 -1
5.0761218 1.7878556 0.45396209 3 -1
5.0594983 1.7728035 0.46316108 3 -1
5.0569248 1.7208427 0.44502002 3 -1
5.0488629 1.719016 0.45553443 3 -1
5.0147243 1.6940157 0.45266148 3 -1
5.0221324 1.6711662 0.43824774 3 -1
5.0093999 1.6355689 0.44658211 3 -1
5.0266786 1.6043298 0.46329746 3 -1
5.0016832 1.562605 0.4573231 3 -1
4.9832258 1.5485911 0.45071948 3 -1
4.9885826 1.5321312 0.44105434 3 -1
5.0150828 1.4860208 0.44066727 3 -1
5.0089717 1.4527853 0.4615663 3 -1
4.9983592 1.4192967 0.42457417 3 -1
4.9917479 1.3512971 0.45525399 3 -1
5.0065317 1.3139613 0.45231622 3 -1
5.0139241 1.2584814 0.45721036 3 -1
5.0534229 1.1959755 0.44214788 3 -1
5.1006241 1.1009443 0.4316214 3 -1
6.0623431 0.071416974 0.40067768 2 -1
5.9590216 0.072543502 0.40423673 2 -1
5.8390841 0.0795151 0.41220027 2 -1
5.7250476 0.068917751 0.42438003 2 -1
5.6393437 0.066423893 0.42407399 2 -1
5.5365915 0.070542455 0.41154489 2 -1
5.4698381 0.068079114 0.42165083 2 -1
5.3695674 0.078562498 0.43016493 2 -1
5.2816563 0.068168163 0.41845804 2 -1
5.2323885 0.072415829 0.42815277 2 -1
4.7598338 2.9829473 0.47600913 3 -1
4.792798 2.9955173 0.46228063 3 -1
4.8277497 2.9797149 0.46848294 3 -1
4.885294 2.9913211 0.46518186 3 -1
4.9391646 3.0298471 0.46469769 3 -1
4.9879112 3.0306525 0.45930299 3 -1
5.0911736 3.0446858 0.4613668 3 -1
5.1911736 3.1020794 0.46980342 3 -1
5.3679581 3.1791201 0.47183242 3 -1
7.1403131 4.8328581 0.48029262 2 -1
7.156249 4.6683941 0.4706535 2 -1
7.1525822 4.5005898 0.46893761 2 -1
7.1426697 4.3436494 0.47395745 2 -1
7.1470547 4.1951356 0.48420718 2 -1
7.1386886 4.0569439 0.44810534 2 -1
7.1096821 3.9245248 0.48823249 2 -1
7.1320696 3.8009515 0.46047154 2 -1
7.1290851 3.6743069 0.48775461 2 -1
7.1328201 3.5608573 0.47660682 2 -1
7.1309161 3.4391847 0.48560429 2 -1
7.1353559 3.3375742 0.45319194 2 -1
7.1173143 3.2252669 0.46134952 2 -1
7.1198053 3.1153016 0.47011742 2 -1
7.116715 3.022985 0.46817219 2 -1
7.1005926 2.9222295 0.46731183 2 -1
7.1265607 2.8233125 0.48405707 2 -1
7.1305494 2.7148776 0.46193999 2 -1
7.1227541 2.6200922 0.46894071 2 -1
7.1179729 2.5248041 0.47888356 2 -1
7.11695 2.4371099 0.46498325 2 -1
7.1153936 2.349879 0.43925652 2 -1
5.4056296 2.1105869 0.47934753 3 -1
5.3143735 2.0494754 0.44699091 3 -1
5.2745628 2.0399613 0.47452995 3 -1
5.2297225 1.9855533 0.48377353 3 -1
5.1795645 1.9621981 0.47941101 3 -1
5.1816654 1.9323664 0.46580869 3 -1
5.115622 1.8995519 0.48017484 3 -1
5.1269088 1.8565214 0.46672121 3 -1
5.1047449 1.8457395 0.48044795 3 -1
5.0996051 1.8217615 0.47220042 3 -1
5.0605149 1.8127722 0.47333086 3 -1
5.06077 1.7507633 0.46737024 3 -1
5.0440674 1.7475803 0.46510375 3 -1
5.0349813 1.7030784 0.47444621 3 -1
5.0209055 1.6910923 0.45270985 3 -1
5.0193191 1.6676848 0.47096947 3 -1
5.0172124 1.6345477 0.46672833 3 -1
5.0100307 1.6016203 0.46553585 3 -1
5.0105286 1.5821005 0.47442415 3 -1
5.0112195 1.5381409 0.47543973 3 -1
4.9929171 1.5132464 0.47726816 3 -1
4.9959836 1.4851296 0.47375205 3 -1
4.9820156 1.4424641 0.47831851 3 -1
4.9949002 1.4177737 0.48775834 3 -1
5.0162883 1.3731891 0.47774035 3 -1
5.007576 1.3220456 0.47278363 3 -1
5.0244637 1.2607877 0.4730261 3 -1
5.0571065 1.196023 0.48732391 3 -1
5.1118841 1.0901175 0.46637571 3 -1
6.0509524 0.066619396 0.4674975 2 -1
5.9442587 0.077599525 0.47652146 2 -1
5.8369598 0.085055709 0.46411145 2 -1
5.7425194 0.066775441 0.47710755 2 -1
5.6418934 0.069042444 0.47178066 2 -1
5.5529189 0.075589418 0.4704228 2 -1
5.4447317 0.07891655 0.47891054 2 -1
5.3589191 0.069873095 0.47210792 2 -1
5.2988114 0.064364672 0.4532578 2 -1
5.2556777 0.09169209 0.47301316 2 -1
4.7453775 2.9785883 0.48861924 3 -1
4.7945485 2.9939167 0.48056322 3 -1
4.820497 3.0111036 0.48838979 3 -1
4.8827147 3.0114439 0.50333411 3 -1
4.934329 3.0155084 0.5107103 3 -1
5.0196476 3.0584941 0.51532841 3 -1
5.0561152 3.0573664 0.50732934 3 -1
5.1849942 3.1210947 0.51682824 3 -1
5.3458815 3.2193289 0.51449478 3 -1
7.1465149 4.833591 0.55774331 2 -1
7.1448517 4.6588798 0.55753344 2 -1
7.1484699 4.4979239 0.55248684 2 -1
7.1299472 4.3455496 0.55334347 2 -1
7.1508298 4.1936893 0.53488028 2 -1
7.1293592 4.0560136 0.5322305 2 -1
7.1297159 3.926693 0.55683303 2 -1
7.1076784 3.7883759 0.5455755 2 -1
7.1232738 3.6667371 0.55195415 2 -1
7.1367874 3.5581923 0.54200619 2 -1
7.1254516 3.4396672 0.54516923 2 -1
7.1304569 3.3299122 0.54499 2 -1
7.1166449 3.2373924 0.53687906 2 -1
7.1415634 3.1083825 0.54755437 2 -1
7.1288967 3.0237799 0.53654921 2 -1
7.1400657 2.9241123 0.52620441 2 -1
7.1148906 2.8260009 0.53891587 2 -1
7.112143 2.7148929 0.54427356 2 -1
7.1042089 2.6186283 0.53509802 2 -1
7.1102619 2.5384471 0.52945924 2 -1
7.1145639 2.4461272 0.53896123 2 -1
7.0985117 2.3501351 0.53270614 2 -1
5.4205184 2.097883 0.50391948 3 -1
5.3132911 2.0635698 0.49972337 3 -1
5.2595024 2.0357633 0.49083215 3 -1
5.2255068 2.0024364 0.49061492 3 -1
5.2011981 1.9689981 0.49995372 3 -1
5.1816292 1.9239454 0.50408 3 -1
5.161706 1.890478 0.49645686 3 -1
5.103301 1.8736593 0.4952741 3 -1
5.1047792 1.8639295 0.49472255 3 -1
5.0885301 1.8037292 0.48844707 3 -1
5.0770268 1.7860277 0.48544428 3 -1
5.0613484 1.7699019 0.49183887 3 -1
5.0455141 1.7462213 0.49259806 3 -1
5.0504727 1.7220488 0.50489223 3 -1
5.0270705 1.7061663 0.4917722 3 -1
5.0215521 1.6600053 0.49670637 3 -1
5.014092 1.61744 0.47839406 3 -1
5.0038195 1.5991969 0.49247277 3 -1
4.9986281 1.5832622 0.49728858 3 -1
4.977715 1.5610626 0.47933108 3 -1
4.998106 1.5240028 0.49871251 3 -1
4.9882674 1.4731383 0.50730783 3 -1
4.986834 1.4491574 0.49781284 3 -1
5.0033202 1.4124438 0.48036116 3 -1
4.9967251 1.3487217 0.49224097 3 -1
5.013185 1.2987697 0.49872991 3 -1
5.0191221 1.2674356 0.50644362 3 -1
5.0500288 1.187815 0.5150612 3 -1
5.1171227 1.095531 0.49988785 3 -1
6.0608792 0.063288331 0.53033859 2 -1
5.9338508 0.060404181 0.53698313 2 -1
5.8332543 0.063375115 0.52597165 2 -1
5.7157607 0.063142896 0.51700288 2 -1
5.63976 0.084262848 0.52331907 2 -1
5.5443096 0.070457697 0.52083737 2 -1
5.4570093 0.078217387 0.51094186 2 -1
5.3779411 0.079643726 0.52797586 2 -1
5.27915 0.069061995 0.51740676 2 -1
5.2432299 0.095384836 0.49720639 2 -1
4.7416034 2.9820843 0.51787537 3 -1
4.7750649 3.0013926 0.51704133 3 -1
4.8291597 3.0115764 0.5147621 3 -1
4.8657861 3.0012045 0.53672624 3 -1
4.9325061 2.9909651 0.52446139 3 -1
5.0123672 3.0367677 0.5453158 3 -1
5.082478 3.0423274 0.50970066 3 -1
5.1940641 3.0943401 0.54431283 3 -1
5.3674326 3.1970434 0.54386652 3 -1
7.1638818 4.8382616 0.65033209 2 -1
7.1659341 4.6574664 0.64502317 2 -1
7.1481342 4.5138965 0.62887758 2 -1
7.1620698 4.3480167 0.61973947 2 -1
7.1388865 4.216795 0.64417601 2 -1
7.1290598 4.0697603 0.61974359 2 -1
7.1408434 3.9210181 0.6239152 2 -1
7.1256666 3.7913253 0.61452949 2 -1
7.1371946 3.6888442 0.61103487 2 -1
7.1256599 3.5550187 0.6051451 2 -1
7.1252103 3.4433613 0.61046088 2 -1
7.1366458 3.3199613 0.60656911 2 -1
7.1198063 3.2443156 0.6025759 2 -1
7.1124601 3.1311724 0.60689944 2 -1
7.1189213 3.008307 0.58243471 2 -1
7.1139746 2.917423 0.59720337 2 -1
7.1051025 2.8338337 0.59201843 2 -1
7.1049013 2.725652 0.61844683 2 -1
7.1094284 2.6315098 0.58619231 2 -1
7.1018858 2.5405517 0.59239107 2 -1
7.0965176 2.4317434 0.60891449 2 -1
7.1104612 2.3422108 0.60301399 2 -1
5.4012742 2.1101108 0.5187797 3 -1
5.3240652 2.0661478 0.5202601 3 -1
5.2633963 2.0346704 0.51837283 3 -1
5.2333512 1.9986169 0.51521701 3 -1
5.1838512 1.9587061 0.51940596 3 -1
5.1526546 1.937636 0.52082515 3 -1
5.1503453 1.9009031 0.52279222 3 -1
5.1328039 1.8647754 0.50574887 3 -1
5.1180682 1.867355 0.51780558 3 -1
5.0990047 1.8213278 0.50776368 3 -1
5.0865588 1.7931283 0.51130176 3 -1
5.0583744 1.7907921 0.51245445 3 -1
5.036427 1.7348676 0.50320423 3 -1
5.034833 1.7001653 0.51096261 3 -1
5.0140786 1.7009389 0.52033895 3 -1
5.0182962 1.6489654 0.49996939 3 -1
4.9996762 1.6457381 0.51792902 3 -1
5.0177851 1.6256185 0.51387298 3 -1
5.0151267 1.5844666 0.50123644 3 -1
4.9880352 1.551494 0.50481796 3 -1
4.9804144 1.5317475 0.51227736 3 -1
4.9740801 1.4902506 0.52985674 3 -1
4.9809976 1.4380939 0.50907582 3 -1
4.9954438 1.4175212 0.52193189 3 -1
4.9720335 1.3551364 0.51224685 3 -1
4.9974923 1.3262019 0.51616424 3 -1
5.007288 1.2763798 0.50815421 3 -1
5.0566759 1.2152793 0.52048612 3 -1
5.1091309 1.0841174 0.53881502 3 -1
6.0583124 0.060290933 0.58430368 2 -1
5.9323311 0.067344427 0.58162296 2 -1
5.8328943 0.067189574 0.57408941 2 -1
5.7348208 0.072185159 0.59042895 2 -1
5.6357856 0.075864673 0.55936122 2 -1
5.5333691 0.066539764 0.56660461 2 -1
5.435492 0.0863204 0.56960297 2 -1
5.3663921 0.081745982 0.56506884 2 -1
5.2686863 0.085971475 0.56639659 2 -1
5.2410536 0.10734153 0.57007098 2 -1
4.7462554 2.9909606 0.54815602 3 -1
4.8213325 2.9916844 0.55268759 3 -1
4.8303218 2.9900866 0.54904133 3 -1
4.8920131 3.0114603 0.54561591 3 -1
4.9459839 3.0071151 0.53763306 3 -1
5.0017166 3.0432911 0.55466831 3 -1
5.0704656 3.0511012 0.55506659 3 -1
5.2015219 3.0849166 0.56746924 3 -1
5.3405304 3.2135887 0.58166027 3 -1
7.1683745 4.8207064 0.72500372 2 -1
7.1510625 4.6569185 0.7374537 2 -1
7.1401196 4.5043292 0.71133828 2 -1
7.130537 4.3577385 0.69660044 2 -1
7.1338906 4.1809282 0.71826792 2 -1
7.1350646 4.0542035 0.71807313 2 -1
7.1404266 3.924659 0.69668472 2 -1
7.1218271 3.8045607 0.70624608 2 -1
7.1268549 3.6774473 0.70280486 2 -1
7.1059208 3.5622618 0.68554044 2 -1
7.121171 3.4412265 0.6709671 2 -1
7.1175694 3.3335066 0.69988692 2 -1
7.1110697 3.2270355 0.67063063 2 -1
7.1132078 3.1337585 0.66721457 2 -1
7.112752 3.0068097 0.67570049 2 -1
7.1121144 2.9104581 0.67121267 2 -1
7.1061897 2.8226268 0.68201059 2 -1
7.0970383 2.7148075 0.67638683 2 -1
7.1095619 2.6213987 0.68418515 2 -1
7.0866747 2.5158646 0.67129493 2 -1
7.109642 2.4420147 0.65748733 2 -1
7.0942655 2.3467665 0.6613403 2 -1
5.4073429 2.1050036 0.53281569 3 -1
5.3346939 2.0703611 0.55587995 3 -1
5.2634773 2.0358059 0.53429234 3 -1
5.2377481 1.9924521 0.53736025 3 -1
5.2044792 1.9603252 0.53893667 3 -1
5.1698475 1.9267346 0.54183769 3 -1
5.1417522 1.8983443 0.51781464 3 -1
5.1130533 1.8852606 0.53581041 3 -1
5.1003795 1.8586996 0.53668034 3 -1
5.0891452 1.8209192 0.5407694 3 -1
5.0708246 1.7959219 0.52959615 3 -1
5.071497 1.7738678 0.5358144 3 -1
5.0496626 1.7452204 0.51899302 3 -1
5.0295529 1.7029952 0.51435244 3 -1
5.0434074 1.6986516 0.5379473 3 -1
5.0225725 1.6514585 0.5300622 3 -1
5.0107698 1.610352 0.53955096 3 -1
5.0007896 1.5922142 0.51355219 3 -1
5.0015922 1.5865655 0.54000175 3 -1
5.0005813 1.5694702 0.54297078 3 -1
4.993145 1.51316 0.52257288 3 -1
4.9950218 1.4999213 0.5350436 3 -1
5.0047293 1.4437258 0.53475368 3 -1
4.9976139 1.4186382 0.53852957 3 -1
4.9982615 1.3809786 0.54778874 3 -1
5.0065832 1.3081726 0.52973682 3 -1
5.0450339 1.2603972 0.53702402 3 -1
5.0510831 1.2061729 0.54971135 3 -1
5.1202211 1.0686533 0.56732696 3 -1
6.051096 0.071626782 0.63613158 2 -1
5.9444904 0.079571128 0.63379204 2 -1
5.8259087 0.078490376 0.63914829 2 -1
5.7409849 0.063771486 0.61677098 2 -1
5.6460805 0.067373157 0.61896795 2 -1
5.5478854 0.082431912 0.6343106 2 -1
5.4583373 0.078706145 0.61683476 2 -1
5.3724322 0.07367301 0.62051368 2 -1
5.2918797 0.088984728 0.60841185 2 -1
5.2360668 0.094101787 0.60886931 2 -1
4.7570405 2.9783368 0.5707581 3 -1
4.7951488 2.9964435 0.57493424 3 -1
4.8455305 2.9971926 0.58691466 3 -1
4.8920512 3.0106621 0.58528799 3 -1
4.9372959 3.0178747 0.56870675 3 -1
5.0047293 3.0320358 0.58513159 3 -1
5.055541 3.0595016 0.59312546 3 -1
5.1728435 3.0911491 0.60277021 3 -1
5.3669267 3.209372 0.62648404 3 -1
7.1494684 4.838273 0.83571243 2 -1
7.1622958 4.6322074 0.80714601 2 -1
7.1508017 4.4978719 0.81295568 2 -1
7.1462755 4.3640366 0.8088783 2 -1
7.1420956 4.1822162 0.78169167 2 -1
7.1320944 4.0549088 0.78609765 2 -1
7.1362448 3.9333367 0.77923179 2 -1
7.1210499 3.8178763 0.7744118 2 -1
7.1294308 3.6778219 0.76135248 2 -1
7.1229186 3.5610526 0.76000923 2 -1
7.1269474 3.4440989 0.75235885 2 -1
7.1132379 3.3511858 0.77114308 2 -1
7.1327181 3.234462 0.74943471 2 -1
7.092916 3.1026616 0.73836321 2 -1
7.112669 3.0149994 0.73121786 2 -1
7.1026287 2.9308515 0.72559303 2 -1
7.1303654 2.8160298 0.7461288 2 -1
7.1146116 2.7210827 0.72202355 2 -1
7.1295443 2.6406224 0.74156487 2 -1
7.1231232 2.5508525 0.71184325 2 -1
7.1227322 2.4558198 0.71347064 2 -1
7.1006918 2.337337 0.73570442 2 -1
5.4084249 2.105989 0.5797686 3 -1
5.3190837 2.0650084 0.560408 3 -1
5.268116 2.0211906 0.56568474 3 -1
5.2289391 1.9916196 0.5543921 3 -1
5.1965322 1.9647183 0.55849677 3 -1
5.1685572 1.933442 0.55920136 3 -1
5.1551447 1.9019979 0.54750425 3 -1
5.1185803 1.8832951 0.54711109 3 -1
5.1062565 1.8481284 0.55943072 3 -1
5.0948491 1.8258363 0.55178976 3 -1
5.0692587 1.8112959 0.54599971 3 -1
5.0699534 1.7711588 0.55588353 3 -1
5.0405517 1.7372806 0.54910386 3 -1
5.016871 1.7218853 0.54345953 3 -1
5.0347562 1.6989113 0.55362946 3 -1
5.0070887 1.6648771 0.55456901 3 -1
4.9932604 1.6476215 0.54923612 3 -1
4.9970059 1.6039548 0.55923635 3 -1
5.0162425 1.5745232 0.54247129 3 -1
4.9849019 1.543981 0.5490365 3 -1
4.9885454 1.513227 0.53881329 3 -1
4.9810495 1.4953496 0.53565371 3 -1
4.9973745 1.457087 0.55200768 3 -1
4.9849167 1.4203515 0.54937875 3 -1
5.0056915 1.3691186 0.53090525 3 -1
5.0019135 1.318404 0.55548084 3 -1
5.0068603 1.2525555 0.55670524 3 -1
5.0437307 1.1906092 0.56662065 3 -1
5.0939093 1.0752721 0.58483624 3 -1
6.0723944 0.068589211 0.68493629 2 -1
5.930757 0.060019374 0.70458537 2 -1
5.8301454 0.061617017 0.68062013 2 -1
5.7411723 0.068281293 0.67615449 2 -1
5.6325769 0.066507339 0.6909253 2 -1
5.5429802 0.075439453 0.67979497 2 -1
5.4491773 0.068372488 0.67094833 2 -1
5.3752341 0.091655731 0.66246259 2 -1
5.3076258 0.086916089 0.65586072 2 -1
5.2360563 0.097855091 0.65754455 2 -1
4.7461262 2.9814014 0.59670192 3 -1
4.7846603 2.9957881 0.61060774 3 -1
4.8325262 2.9862089 0.59647632 3 -1
4.8762913 3.0234497 0.60252172 3 -1
4.9325099 3.0042386 0.60733759 3 -1
5.0061007 3.0232334 0.61981189 3 -1
5.0760765 3.0518413 0.61484015 3 -1
5.1854315 3.1019268 0.6323663 3 -1
5.3457074 3.1809814 0.65450871 3 -1
7.1412468 4.8261781 0.89873028 2 -1
7.1388979 4.6615949 0.89688206 2 -1
7.1582217 4.4868402 0.89028192 2 -1
7.1500254 4.3393569 0.88483977 2 -1
7.144609 4.1979675 0.89020681 2 -1
7.153595 4.0651212 0.86891198 2 -1
7.1176596 3.9195697 0.8518014 2 -1
7.1241341 3.8005388 0.85314989 2 -1
7.1399927 3.6934586 0.84886038 2 -1
7.1389589 3.5507355 0.82821918 2 -1
7.1209745 3.4374166 0.8378545 2 -1
7.1237469 3.3349423 0.80859649 2 -1
7.1165247 3.2412066 0.8174417 2 -1
7.1091633 3.1171088 0.8135497 2 -1
7.1163731 3.0295358 0.8181262 2 -1
7.1130505 2.9257464 0.79918349 2 -1
7.094831 2.7959378 0.80000556 2 -1
7.1027603 2.7404904 0.79918253 2 -1
7.0900164 2.6376915 0.78883266 2 -1
7.1106033 2.5439975 0.80502605 2 -1
7.1223497 2.4590721 0.80572706 2 -1
7.1024957 2.3587625 0.79203868 2 -1
5.4030123 2.1236959 0.60048687 3 -1
5.3493395 2.0576017 0.60632795 3 -1
5.2593079 2.0235553 0.58895212 3 -1
5.2261524 2.0088382 0.58290356 3 -1
5.209569 1.9625944 0.5887028 3 -1
5.1662912 1.9297634 0.57002151 3 -1
5.1517019 1.9125613 0.58279502 3 -1
5.1246767 1.8822396 0.58509266 3 -1
5.1134 1.8510993 0.55982286 3 -1
5.0917125 1.8179071 0.58347249 3 -1
5.0760765 1.7936207 0.5760743 3 -1
5.0480132 1.7649797 0.57281667 3 -1
5.058322 1.7388847 0.56552565 3 -1
5.0379896 1.7049553 0.55927032 3 -1
5.0316849 1.6849561 0.57339424 3 -1
5.0371819 1.6548839 0.57617462 3 -1
5.0103788 1.6611161 0.58960843 3 -1
5.001442 1.6141455 0.56401658 3 -1
4.991456 1.5867435 0.56154114 3 -1
5.0025964 1.5636088 0.56083971 3 -1
4.9854198 1.5144199 0.58984256 3 -1
4.9844298 1.4779966 0.58079702 3 -1
4.9939303 1.4368167 0.57929206 3 -1
4.9799027 1.4103463 0.59291506 3 -1
4.9849596 1.3739843 0.580001 3 -1
5.0233979 1.302243 0.5959841 3 -1
5.0070977 1.2540863 0.59711558 3 -1
5.0539284 1.1967325 0.59514117 3 -1
5.1154084 1.0759735 0.61313218 3 -1
6.0557847 0.045450091 0.74385488 2 -1
5.9510298 0.076911092 0.75764251 2 -1
5.838439 0.078159928 0.7468068 2 -1
5.7142148 0.078724623 0.74486506 2 -1
5.6228323 0.077828288 0.73764068 2 -1
5.5503874 0.076226115 0.71576083 2 -1
5.4447341 0.081468344 0.70803249 2 -1
5.3821516 0.064693213 0.70545095 2 -1
5.2992315 0.079460502 0.7076081 2 -1
5.2440271 0.11248124 0.69892877 2 -1
4.7348738 2.9819226 0.62705296 3 -1
4.7986031 2.9635518 0.61953032 3 -1
4.8318553 3.0003381 0.61045992 3 -1
4.8678441 2.9972091 0.62200177 3 -1
4.9448862 2.9974597 0.62577176 3 -1
5.0223246 3.0277572 0.64754695 3 -1
5.0815091 3.0446868 0.66977352 3 -1
5.1868229 3.1062684 0.66482174 3 -1
5.3543701 3.1867702 0.6903739 3 -1
7.1658688 4.8084393 1.0131773 2 -1
7.1496744 4.6536846 0.97861063 2 -1
7.11272 4.4870324 0.97799778 2 -1
7.1249642 4.3350883 0.96090961 2 -1
7.1384592 4.2119975 0.94598389 2 -1
7.1215992 4.0536828 0.93991446 2 -1
7.136878 3.9185879 0.91484892 2 -1
7.118639 3.8146791 0.9211154 2 -1
7.1170063 3.6735969 0.91942501 2 -1
7.1487389 3.5622921 0.88915861 2 -1
7.1268606 3.4365327 0.90303034 2 -1
7.1165414 3.3249791 0.88878179 2 -1
7.1136074 3.2416868 0.85948557 2 -1
7.1140785 3.1114268 0.86473179 2 -1
7.1082206 3.0217431 0.8708365 2 -1
7.1008167 2.9086912 0.87023079 2 -1
7.1143217 2.8358028 0.87793159 2 -1
7.1108646 2.7219014 0.87249625 2 -1
7.1202259 2.6153266 0.86442 2 -1
7.1031899 2.5422378 0.87894678 2 -1
7.0996561 2.43957 0.87315559 2 -1
7.0986433 2.3678503 0.86751026 2 -1
5.4100285 2.1108408 0.64279974 3 -1
5.3306561 2.0658259 0.623743 3 -1
5.2734184 2.0063393 0.61165059 3 -1
5.2207904 1.9871173 0.60486859 3 -1
5.2023473 1.9745592 0.6164645 3 -1
5.1787443 1.9374094 0.5970524 3 -1
5.1481833 1.8799636 0.59306633 3 -1
5.1106076 1.887854 0.6112144 3 -1
5.1031837 1.8415329 0.58966267 3 -1
5.1003013 1.8066722 0.57291287 3 -1
5.079957 1.8062104 0.59968954 3 -1
5.052608 1.7692798 0.59299928 3 -1
5.0476031 1.7541459 0.59080863 3 -1
5.0410542 1.7188649 0.60222608 3 -1
5.0131631 1.7113409 0.59385246 3 -1
5.0335865 1.6583221 0.58409828 3 -1
5.0116501 1.6429454 0.59096396 3 -1
5.0042458 1.5983877 0.6005224 3 -1
5.0122342 1.5666077 0.6027931 3 -1
4.9890924 1.5584638 0.59556502 3 -1
4.9874015 1.5270685 0.61909175 3 -1
4.9819117 1.4869921 0.618819 3 -1
4.9820561 1.4370439 0.59092498 3 -1
5.010293 1.4198439 0.58800912 3 -1
5.0013056 1.3792905 0.6139347 3 -1
5.0115309 1.3098413 0.60201961 3 -1
5.013567 1.2601454 0.6204527 3 -1
5.0645294 1.1974683 0.62906051 3 -1
5.1158099 1.0826266 0.63422167 3 -1
6.0667729 0.054025769 0.8232578 2 -1
5.9493723 0.080310583 0.78791261 2 -1
5.8568921 0.060162306 0.80345321 2 -1
5.719523 0.067916036 0.79942781 2 -1
5.6214905 0.074809432 0.76958907 2 -1
5.5502439 0.077845216 0.77890277 2 -1
5.4509859 0.072449327 0.76974344 2 -1
5.3629861 0.073180676 0.76548219 2 -1
5.2843347 0.075124025 0.74704766 2 -1
5.2156792 0.095093131 0.74467778 2 -1
4.7554183 2.9903412 0.65290141 3 -1
4.7974482 3.0043836 0.65302593 3 -1
4.8382416 3.0009401 0.64639437 3 -1
4.868083 2.979739 0.64739585 3 -1
4.9396648 3.0234222 0.66814512 3 -1
4.9964676 3.0143061 0.66809994 3 -1
5.0940166 3.0468774 0.6825633 3 -1
5.1632624 3.0982623 0.69301754 3 -1
5.3449569 3.1914105 0.74023461 3 -1
7.1642718 4.8169665 1.0952238 2 -1
7.1540833 4.6458058 1.0846245 2 -1
7.1620407 4.5029445 1.0411334 2 -1
7.1264439 4.3480563 1.0489948 2 -1
7.1293993 4.2130437 1.0102637 2 -1
7.1313877 4.0591574 1.0173142 2 -1
7.1322031 3.9162941 1.0260007 2 -1
7.1305408 3.7850156 0.9907093 2 -1
7.1115007 3.7057533 0.99609381 2 -1
7.1289783 3.5519156 0.97428018 2 -1
7.0982561 3.4436579 0.96255511 2 -1
7.1168785 3.3450508 0.96615946 2 -1
7.1210709 3.2349777 0.95372546 2 -1
7.1318774 3.1025064 0.94807541 2 -1
7.1064215 3.0301883 0.94270432 2 -1
7.103406 2.9108791 0.93535638 2 -1
7.1047359 2.8426077 0.93236744 2 -1
7.1093273 2.695703 0.93873298 2 -1
7.103519 2.6261461 0.91608369 2 -1
7.1149988 2.5356936 0.92821097 2 -1
7.1104546 2.4393063 0.94124269 2 -1
7.1008587 2.3477371 0.91674447 2 -1
5.3941307 2.114826 0.67396498 3 -1
5.3268337 2.0768635 0.64896035 3 -1
5.273284 2.0244517 0.63222539 3 -1
5.2396078 2.0028012 0.63867551 3 -1
5.1906328 1.9672709 0.64899743 3 -1
5.1780696 1.9431503 0.63203585 3 -1
5.1461468 1.8960844 0.63541532 3 -1
5.1341743 1.8833579 0.62844872 3 -1
5.1263647 1.8439531 0.60750496 3 -1
5.0871797 1.8263532 0.59626669 3 -1
5.0838947 1.8045703 0.61472774 3 -1
5.0517364 1.760864 0.61868787 3 -1
5.0563097 1.7436392 0.63304406 3 -1
5.0429716 1.725565 0.60497105 3 -1
5.0305285 1.6968637 0.60155463 3 -1
5.0132604 1.6531519 0.61342865 3 -1
5.0032516 1.6444664 0.61428177 3 -1
4.9931698 1.6275858 0.62082851 3 -1
5.0108399 1.5807333 0.60903251 3 -1
5.0018902 1.523854 0.61401963 3 -1
5.0041728 1.524716 0.6255033 3 -1
4.9895005 1.4936132 0.61071157 3 -1
4.9811659 1.4425799 0.61669201 3 -1
4.9949684 1.4134777 0.62512052 3 -1
4.9891787 1.3677726 0.62176049 3 -1
4.9933553 1.2964385 0.62624848 3 -1
5.027791 1.2597746 0.64083815 3 -1
5.065134 1.1953975 0.6327669 3 -1
5.1004386 1.0796306 0.66162378 3 -1
6.0578575 0.061457396 0.87594163 2 -1
5.9400187 0.079898596 0.87158895 2 -1
5.8457012 0.08225286 0.8540948 2 -1
5.7346582 0.084164023 0.83849102 2 -1
5.6386604 0.08828783 0.82978368 2 -1
5.5369148 0.089948416 0.82994503 2 -1
5.4470735 0.082235336 0.81701183 2 -1
5.3688192 0.086004257 0.79749471 2 -1
5.2883205 0.079599738 0.80389702 2 -1
5.2359686 0.088646531 0.79883176 2 -1
4.738225 2.975642 0.65537316 3 -1
4.7933397 3.0122597 0.67953002 3 -1
4.8279595 3.0320725 0.6798929 3 -1
4.8725429 3.0058551 0.68177086 3 -1
4.9483285 3.0154426 0.68687439 3 -1
4.9946032 3.0414009 0.69803256 3 -1
5.0763001 3.05197 0.71750998 3 -1
5.1787496 3.0932693 0.73504031 3 -1
5.3538408 3.2017441 0.76929867 3 -1
7.1309705 4.8310776 1.1883118 2 -1
7.1180277 4.6504726 1.1537842 2 -1
7.1431446 4.4877243 1.1408253 2 -1
7.1343164 4.3411388 1.1228671 2 -1
7.1268339 4.2074175 1.1147133 2 -1
7.1519346 4.0554566 1.1019986 2 -1
7.1403213 3.939383 1.0860854 2 -1
7.1244431 3.7985835 1.0859901 2 -1
7.1390176 3.6665895 1.07342 2 -1
7.1334443 3.5558462 1.0430251 2 -1
7.1179571 3.4362793 1.0420817 2 -1
7.1181355 3.3318734 1.0400175 2 -1
7.1055083 3.2063966 1.0267481 2 -1
7.1173487 3.1162629 0.99826771 2 -1
7.1162739 3.0100842 1.0253823 2 -1
7.1130934 2.9299669 1.0118715 2 -1
7.0944719 2.8099196 1.0043368 2 -1
7.1097775 2.6960068 0.99035543 2 -1
7.1015606 2.6330063 0.97767895 2 -1
7.1174288 2.5241802 0.98375642 2 -1
7.0926352 2.4542246 0.99733388 2 -1
7.096139 2.3325119 0.97712523 2 -1
5.408515 2.1053054 0.69452709 3 -1
5.318038 2.0765638 0.68292838 3 -1
5.2596416 2.0519311 0.66482741 3 -1
5.2407222 1.9993355 0.66071486 3 -1
5.206336 1.9651973 0.64021337 3 -1
5.1622167 1.9467516 0.64876944 3 -1
5.1260142 1.8862642 0.62943673 3 -1
5.1179104 1.8772669 0.62581718 3 -1
5.1004415 1.8668743 0.64196873 3 -1
5.0983477 1.8211831 0.63765752 3 -1
5.0484838 1.7914761 0.64142048 3 -1
5.0579529 1.772045 0.64778507 3 -1
5.0508261 1.7418668 0.62492675 3 -1
5.05091 1.7132375 0.62350982 3 -1
5.0177159 1.6877372 0.62929189 3 -1
5.0281897 1.6631441 0.63390446 3 -1
5.0018873 1.6254376 0.62668556 3 -1
4.9867001 1.6030884 0.64174438 3 -1
4.9986372 1.5604322 0.63161582 3 -1
4.9944148 1.5639589 0.63059026 3 -1
4.9865856 1.5262057 0.6441564 3 -1
4.9866357 1.4872601 0.64112556 3 -1
4.9802814 1.4596059 0.64585716 3 -1
5.0063081 1.4078574 0.63368183 3 -1
4.9880948 1.3650398 0.65540498 3 -1
5.0186648 1.319458 0.66382641 3 -1
5.0187559 1.2654521 0.68963349 3 -1
5.0512185 1.1760643 0.67897671 3 -1
5.1224551 1.0918386 0.71396422 3 -1
6.0658674 0.064954281 0.93980157 2 -1
5.9494262 0.073602915 0.92253661 2 -1
5.8313174 0.078688979 0.91977751 2 -1
5.7206497 0.073053002 0.89981699 2 -1
5.6397252 0.066850543 0.87457895 2 -1
5.5395861 0.08523047 0.88210326 2 -1
5.4542122 0.090780139 0.88585889 2 -1
5.3637009 0.081298113 0.8530454 2 -1
5.2919888 0.083963037 0.84727168 2 -1
5.2296686 0.11696529 0.83424902 2 -1
4.7484212 2.982378 0.70639449 3 -1
4.7963552 2.9876986 0.68153769 3 -1
4.8298154 3.0136476 0.70124936 3 -1
4.8699956 3.0049932 0.7025764 3 -1
4.9446335 3.0107512 0.73418319 3 -1
5.0170736 3.0456891 0.71755999 3 -1
5.0852451 3.0410075 0.74680728 3 -1
5.1784286 3.0948036 0.76567209 3 -1
5.3550296 3.1952672 0.81131363 3 -1
7.1499348 4.8242617 1.2762976 2 -1
7.1518869 4.662209 1.243798 2 -1
7.1326017 4.4967089 1.2342807 2 -1
7.1286259 4.3433714 1.2121098 2 -1
7.1423187 4.2007256 1.1780275 2 -1
7.1285954 4.0695934 1.1811998 2 -1
7.127737 3.9119887 1.1640756 2 -1
7.1204233 3.8162498 1.1610397 2 -1
7.1230083 3.6882935 1.1297934 2 -1
7.1249666 3.5638576 1.1256857 2 -1
7.112957 3.4387712 1.1140769 2 -1
7.1107106 3.3139124 1.1105886 2 -1
7.1319876 3.2203608 1.1103854 2 -1
7.1104321 3.1030474 1.0979936 2 -1
7.1303358 3.0058284 1.0736939 2 -1
7.1143332 2.9117503 1.0794004 2 -1
7.1065445 2.8138807 1.0612214 2 -1
7.1132383 2.719244 1.0548049 2 -1
7.1112695 2.6369231 1.0555298 2 -1
7.1389093 2.5353539 1.0570424 2 -1
7.1170216 2.4474695 1.0751095 2 -1
7.096169 2.3467107 1.0630939 2 -1
5.4039736 2.1053677 0.71888429 3 -1
5.3141289 2.0616407 0.71898997 3 -1
5.2765975 2.027606 0.68845356 3 -1
5.2180905 1.9787624 0.67777306 3 -1
5.1847553 1.957862 0.67784238 3 -1
5.1643801 1.9199826 0.66165048 3 -1
5.1447992 1.9184374 0.65159309 3 -1
5.1192613 1.8780851 0.66582632 3 -1
5.1000824 1.8449067 0.65720278 3 -1
5.0715256 1.8231353 0.64415628 3 -1
5.0761642 1.7919075 0.65574706 3 -1
5.0389042 1.7719979 0.65637279 3 -1
5.0421062 1.7401912 0.64303583 3 -1
5.0236435 1.7048402 0.64088356 3 -1
5.0291262 1.6819245 0.65365422 3 -1
5.0211668 1.6596748 0.63705176 3 -1
5.0006828 1.6380491 0.64414668 3 -1
5.0004034 1.58498 0.65847498 3 -1
5.0016341 1.5756992 0.67258537 3 -1
4.9994178 1.5562646 0.67253095 3 -1
5.0105772 1.5341512 0.66615206 3 -1
4.9840884 1.4663612 0.68154609 3 -1
5.0070252 1.471061 0.6576646 3 -1
5.0102916 1.419668 0.66125256 3 -1
4.9960136 1.3795917 0.66822135 3 -1
5.0179386 1.3156738 0.67406601 3 -1
5.0198774 1.2725201 0.70408452 3 -1
5.0543942 1.1904733 0.69030458 3 -1
5.1098814 1.0737088 0.744138 3 -1
6.0666666 0.062265635 0.99985421 2 -1
5.9415059 0.088724136 0.97640556 2 -1
5.8428817 0.085033894 0.96769428 2 -1
5.7326775 0.063727856 0.9617486 2 -1
5.6272764 0.077798009 0.94813138 2 -1
5.5313215 0.066948414 0.93844259 2 -1
5.4423814 0.084022403 0.91764671 2 -1
5.3708372 0.073215485 0.91707695 2 -1
5.2995362 0.082263112 0.90316188 2 -1
5.2342787 0.11105573 0.89377171 2 -1
4.7485948 2.9959512 0.73399258 3 -1
4.7927618 2.9957249 0.7155025 3 -1
4.8427248 2.9900045 0.71310508 3 -1
4.8900337 2.9940009 0.73590559 3 -1
4.9619026 3.0212183 0.74843717 3 -1
4.9980817 3.017314 0.773911 3 -1
5.0644517 3.0558009 0.77393824 3 -1
5.1640363 3.0751185 0.79579067 3 -1
5.3675137 3.2205362 0.84736538 3 -1
7.1451159 4.8247161 1.3597634 2 -1
7.1311655 4.6458163 1.3468211 2 -1
7.1600819 4.5073557 1.3274143 2 -1
7.1440506 4.3603597 1.299207 2 -1
7.1361084 4.2010288 1.278747 2 -1
7.1454039 4.0390134 1.2526968 2 -1
7.1108742 3.9481835 1.226019 2 -1
7.1451459 3.8030453 1.218627 2 -1
7.1222391 3.6587744 1.2060993 2 -1
7.1140203 3.5540862 1.1940496 2 -1
7.1236434 3.4531026 1.1891967 2 -1
7.1119823 3.3249874 1.1774008 2 -1
7.1155262 3.2203918 1.1656311 2 -1
7.1216888 3.1268816 1.160941 2 -1
7.0931416 3.0146887 1.1573923 2 -1
7.0995932 2.9148009 1.1566353 2 -1
7.0915909 2.8177438 1.1348853 2 -1
7.0961885 2.7186947 1.1290313 2 -1
7.0941114 2.6279778 1.1244463 2 -1
7.0969272 2.5298858 1.1297417 2 -1
7.1023703 2.4478664 1.1181843 2 -1
7.0930991 2.3624914 1.1071351 2 -1
5.3955135 2.1196361 0.73180395 3 -1
5.3109241 2.0546563 0.72293776 3 -1
5.2716794 2.0205929 0.71961117 3 -1
5.2028093 2.0002329 0.69691312 3 -1
5.1866097 1.9502484 0.69026482 3 -1
5.165916 1.932325 0.67618817 3 -1
5.1369653 1.9184127 0.6862582 3 -1
5.1140609 1.8749403 0.69101071 3 -1
5.0969815 1.8524069 0.69519293 3 -1
5.0898633 1.8164628 0.67565823 3 -1
5.0573397 1.7980623 0.67753071 3 -1
5.0631819 1.7799339 0.67424148 3 -1
5.0421424 1.7555803 0.67877078 3 -1
5.031558 1.7236508 0.66402221 3 -1
5.0105491 1.6697259 0.67450809 3 -1
5.0354772 1.6755933 0.66695404 3 -1
4.9973578 1.6325121 0.6923883 3 -1
5.0052361 1.6136024 0.65315092 3 -1
4.9863858 1.5795784 0.67573202 3 -1
5.0006924 1.5572566 0.68498719 3 -1
5.0057454 1.5191853 0.69533336 3 -1
4.9852467 1.4725978 0.69253075 3 -1
4.9732599 1.4326751 0.68259937 3 -1
4.9970946 1.4175885 0.68192637 3 -1
4.9995475 1.3678875 0.69785303 3 -1
5.0152063 1.3016607 0.72130346 3 -1
5.0076113 1.2730298 0.72836328 3 -1
5.0640531 1.1889088 0.73647511 3 -1
5.1090231 1.0940825 0.74264199 3 -1
6.0548401 0.074499607 1.0597851 2 -1
5.9308825 0.083292365 1.0415037 2 -1
5.8377476 0.068201303 1.0257001 2 -1
5.7202449 0.068909407 1.0001054 2 -1
5.6541829 0.07593441 0.99819875 2 -1
5.5406294 0.071497202 0.97276562 2 -1
5.4548826 0.094020009 0.98541242 2 -1
5.3718448 0.091760993 0.94165611 2 -1
5.2893319 0.086338043 0.96353674 2 -1
5.2355137 0.10538852 0.94856644 2 -1
4.7486939 2.9935744 0.74769783 3 -1
4.7781839 2.9972963 0.74861199 3 -1
4.8259487 2.9946437 0.77119148 3 -1
4.9020643 2.9994278 0.75611639 3 -1
4.931139 3.0118055 0.76909119 3 -1
5.0149693 3.0160244 0.78660643 3 -1
5.0683408 3.0558448 0.81369352 3 -1
5.1871953 3.0831084 0.83228827 3 -1
5.3254595 3.2051244 0.86677706 3 -1
7.1453891 4.8077774 1.4791361 2 -1
7.1599073 4.6423955 1.4270582 2 -1
7.1449499 4.4723258 1.4066445 2 -1
7.1267891 4.3432703 1.3815764 2 -1
7.1368356 4.201786 1.3532956 2 -1
7.1289902 4.0715251 1.3285735 2 -1
7.1166358 3.9130118 1.3331639 2 -1
7.118782 3.8044333 1.3025277 2 -1
7.120976 3.6663918 1.2993047 2 -1
7.1235142 3.5580554 1.2826672 2 -1
7.1044288 3.4656982 1.2583497 2 -1
7.1137905 3.3284154 1.2494378 2 -1
7.1053262 3.2036099 1.2474256 2 -1
7.1024275 3.1248808 1.2329042 2 -1
7.1067653 3.0254288 1.2227392 2 -1
7.1260114 2.9294112 1.207616 2 -1
7.0996761 2.8006144 1.2180947 2 -1
7.0845871 2.6989965 1.2044363 2 -1
7.108263 2.6189349 1.2057827 2 -1
7.0913911 2.5021827 1.1961696 2 -1
7.0993519 2.4292917 1.1890974 2 -1
7.1026688 2.3574972 1.1846801 2 -1
5.3901477 2.120738 0.77697372 3 -1
5.3150406 2.0520744 0.75952613 3 -1
5.2697544 2.0339622 0.7564593 3 -1
5.2308712 2.0032394 0.70500803 3 -1
5.1817188 1.9665139 0.7086457 3 -1
5.169467 1.9271872 0.71848714 3 -1
5.1302867 1.9097017 0.71176898 3 -1
5.1018605 1.8763415 0.70400667 3 -1
5.1034422 1.8343402 0.69659406 3 -1
5.0774622 1.8225037 0.69888872 3 -1
5.0528541 1.787089 0.69537187 3 -1
5.0648894 1.7673216 0.70285022 3 -1
5.0414629 1.7370926 0.70948219 3 -1
5.058239 1.7251806 0.69932741 3 -1
5.0178938 1.68959 0.6934256 3 -1
5.008831 1.6657493 0.66613632 3 -1
5.0248013 1.6611009 0.68076319 3 -1
5.0285077 1.6103803 0.68462247 3 -1
4.9914689 1.5863237 0.69361925 3 -1
5.0123048 1.5494435 0.67506772 3 -1
4.9945331 1.5172316 0.69580936 3 -1
4.9713626 1.4711564 0.71326149 3 -1
4.9829407 1.4424295 0.69264454 3 -1
4.9729352 1.3998048 0.71392202 3 -1
4.9974241 1.3627274 0.70952022 3 -1
4.9964375 1.3058078 0.71180838 3 -1
5.0323954 1.2743931 0.74042368 3 -1
5.0374503 1.1945126 0.75794673 3 -1
5.1206727 1.0733792 0.78246939 3 -1
6.0639262 0.084457278 1.1197394 2 -1
5.9250541 0.066518307 1.0944626 2 -1
5.8335667 0.073327184 1.108281 2 -1
5.7178144 0.064369798 1.062506 2 -1
5.6278229 0.081330895 1.0506132 2 -1
5.5407138 0.075547576 1.0324488 2 -1
5.4493837 0.073636413 1.0217226 2 -1
5.366725 0.071284771 1.0126538 2 -1
5.2966423 0.086813211 0.99203628 2 -1
5.243516 0.1066283 1.0047944 2 -1
4.7487583 2.9885232 0.80023885 3 -1
4.7774172 2.9960215 0.76983166 3 -1
4.8396063 2.9937549 0.79534411 3 -1
4.8731108 3.0037532 0.79516053 3 -1
4.9264269 3.0219302 0.8113457 3 -1
4.9966917 3.0234249 0.82808125 3 -1
5.0776439 3.0551169 0.8324638 3 -1
5.1718893 3.0858045 0.86349869 3 -1
5.3575792 3.2079883 0.93024051 3 -1
7.1233978 4.8235555 1.5582507 2 -1
7.1411428 4.6529756 1.5223565 2 -1
7.1400414 4.4997563 1.4977107 2 -1
7.1341877 4.3294249 1.4699824 2 -1
7.1384535 4.1888995 1.4413587 2 -1
7.1227894 4.0579205 1.4135065 2 -1
7.1034155 3.9284365 1.4201716 2 -1
7.1310697 3.8013711 1.3711317 2 -1
7.1057982 3.6774044 1.3755491 2 -1
7.1175146 3.5515127 1.3630109 2 -1
7.1199713 3.4390483 1.3485031 2 -1
7.116087 3.3214898 1.317672 2 -1
7.1241336 3.2083125 1.3131607 2 -1
7.1196423 3.1133504 1.2986326 2 -1
7.0946822 3.0137572 1.2952552 2 -1
7.1004019 2.9097836 1.2934811 2 -1
7.101141 2.7997117 1.2606579 2 -1
7.1211276 2.7104249 1.2502744 2 -1
7.0937123 2.6423452 1.2579516 2 -1
7.0987573 2.542387 1.2604313 2 -1
7.1179152 2.4327886 1.2556845 2 -1
7.1020126 2.3550148 1.2394154 2 -1
5.3988442 2.1211846 0.79120302 3 -1
5.3092675 2.0686877 0.79666841 3 -1
5.2619839 2.0406077 0.75955695 3 -1
5.2363791 2.0128632 0.75524104 3 -1
5.1885605 1.9572152 0.73735559 3 -1
5.1546936 1.9220803 0.73442554 3 -1
5.1283841 1.9009693 0.74127799 3 -1
5.1263242 1.8537271 0.72050989 3 -1
5.1032009 1.8464588 0.73631811 3 -1
