# .PCD v0.7 - Point Cloud Data file format
VERSION 0.7
FIELDS x y z label
SIZE 4 4 4 4
TYPE F F F U
COUNT 1 1 1 1
WIDTH 1339
HEIGHT 1
VIEWPOINT 5.6 6.99998 0.0997633 1 0 0 0
POINTS 1339
DATA ascii
5.6977077 8.2079649 0.10643803 1 -1
5.7292619 8.2049456 0.10259145 1 -1
5.7504063 8.1855907 0.11244193 1 -1
5.7798109 8.1750526 0.1131776 1 -1
5.808476 8.1732159 0.10691473 1 -1
5.8354559 8.1573553 0.093138486 1 -1
5.8904982 8.1437149 0.10540286 1 -1
5.9044099 8.1283531 0.13149744 1 -1
5.9339633 8.122159 0.11044621 1 -1
5.9675388 8.1151237 0.1192413 1 -1
6.0072885 8.096858 0.10193297 1 -1
6.0149002 8.0902824 0.10282388 1 -1
6.0543456 8.0664215 0.13351026 1 -1
6.0875387 8.0609884 0.1282464 1 -1
5.2165871 7.1397748 0.37412763 3 -1
5.1905432 7.1623516 0.36291909 3 -1
5.1869583 7.155355 0.38109392 3 -1
5.1907759 7.1506629 0.37070566 3 -1
5.1854377 7.1520028 0.37018535 3 -1
5.1793394 7.1733084 0.36736605 3 -1
5.1762333 7.2037053 0.35290313 3 -1
5.1790047 7.2174191 0.36484247 3 -1
5.162075 7.2136602 0.35312709 3 -1
5.1918654 7.2404776 0.33676168 3 -1
5.1723185 7.2465935 0.36422732 3 -1
5.1810265 7.2575474 0.35608339 3 -1
5.1626043 7.256309 0.353697 3 -1
5.1610513 7.2997832 0.3304064 3 -1
5.1676149 7.3064399 0.32459986 3 -1
5.1410055 7.309134 0.33338326 3 -1
5.1588173 7.3353863 0.33743185 3 -1
5.1466694 7.3668752 0.32722163 3 -1
5.1319203 7.3751979 0.31307912 3 -1
5.1177177 7.3943715 0.3102535 3 -1
5.1032887 7.4189587 0.29370272 3 -1
5.0859542 7.4592052 0.29503098 3 -1
5.099257 7.5012002 0.29214323 3 -1
5.0521898 7.5435367 0.2775664 3 -1
4.9942956 7.5964727 0.26236272 3 -1
4.7078156 7.933567 0.10414803 1 -1
4.7169709 7.9659481 0.10086238 1 -1
4.7568569 8.0005236 0.11434504 1 -1
4.77425 8.0214911 0.1132644 1 -1
4.7989097 8.031786 0.09971454 1 -1
4.8337522 8.0611906 0.10698187 1 -1
4.8804746 8.0771265 0.11035338 1 -1
4.8797836 8.116744 0.12828279 1 -1
4.9201169 8.1136932 0.11444797 1 -1
4.9408002 8.1530724 0.11581025 1 -1
4.9803166 8.1495495 0.10068043 1 -1
4.9961705 8.1878443 0.10035247 1 -1
5.0451956 8.2007856 0.095339358 1 -1
5.0534859 8.1866169 0.10947388 1 -1
5.1068091 8.2107916 0.12278551 1 -1
5.1487818 8.2199564 0.10314842 1 -1
5.1615667 8.2568512 0.12331456 1 -1
5.2179537 8.2481022 0.10641053 1 -1
5.2375588 8.2468204 0.097532302 1 -1
5.2920756 8.2641869 0.11858296 1 -1
5.2970743 8.2702723 0.1184198 1 -1
5.3352203 8.2935829 0.1108532 1 -1
5.3915744 8.2735882 0.1210762 1 -1
5.4019742 8.3079643 0.11595792 1 -1
5.4571891 8.2771511 0.13107529 1 -1
5.4822173 8.2747602 0.10970739 1 -1
5.5222635 8.2893677 0.13125333 1 -1
5.5531511 8.2999973 0.12608656 1 -1
5.5931807 8.2884197 0.10597569 1 -1
5.6386795 8.2798882 0.11359166 1 -1
5.6558309 8.2640018 0.091917843 1 -1
5.6971903 8.2621546 0.092156678 1 -1
5.7384171 8.2917709 0.1157842 1 -1
5.7773867 8.2503576 0.098815769 1 -1
5.7848215 8.2597237 0.10885298 1 -1
5.8412313 8.2559481 0.11408368 1 -1
5.8538961 8.2308044 0.11836231 1 -1
5.8777442 8.2206154 0.11339384 1 -1
5.9282465 8.2191525 0.13213313 1 -1
5.9683123 8.1937599 0.10856575 1 -1
6.0087762 8.2115288 0.10195722 1 -1
6.0107512 8.1808968 0.11128283 1 -1
6.0735259 8.1528244 0.081634849 1 -1
6.0898581 8.1451893 0.11849657 1 -1
6.1140347 8.1414022 0.10666241 1 -1
5.1821723 7.1326833 0.39485568 3 -1
5.1890297 7.1619072 0.38804173 3 -1
5.2001176 7.1524425 0.37789315 3 -1
5.1885419 7.1770267 0.39039713 3 -1
5.1905985 7.1752071 0.36158869 3 -1
5.1773658 7.2184753 0.35922986 3 -1
5.1805706 7.2090793 0.37245011 3 -1
5.1776071 7.2128954 0.36437324 3 -1
5.1822901 7.2366791 0.36219874 3 -1
5.1511421 7.2177453 0.37344241 3 -1
5.1597385 7.2450004 0.36439869 3 -1
5.1631021 7.263217 0.36858678 3 -1
5.1474237 7.2675352 0.36529666 3 -1
5.1688223 7.2746763 0.3627868 3 -1
5.1320195 7.3057976 0.3590728 3 -1
5.1618881 7.3268843 0.35296786 3 -1
5.1532249 7.3586602 0.3445031 3 -1
5.1229987 7.362144 0.32617241 3 -1
5.1245646 7.3748188 0.34205502 3 -1
5.1271043 7.412828 0.32631749 3 -1
5.1102347 7.4369216 0.32657877 3 -1
5.0914373 7.4644351 0.31999326 3 -1
5.0707583 7.4927077 0.29817137 3 -1
5.0536628 7.5632257 0.30150837 3 -1
5.008038 7.6272879 0.26652747 3 -1
4.6164985 8.0129614 0.10891321 1 -1
4.6588206 8.032958 0.10537562 1 -1
4.6674109 8.0371628 0.1074082 1 -1
4.7208672 8.0745707 0.11721122 1 -1
4.7567568 8.132515 0.10279518 1 -1
4.7944078 8.1326532 0.11005902 1 -1
4.7980084 8.1620626 0.13185117 1 -1
4.834723 8.1875153 0.13447109 1 -1
4.8514638 8.200491 0.11480743 1 -1
4.9080563 8.2278728 0.12254205 1 -1
4.9378061 8.2193422 0.094649702 1 -1
4.984375 8.2572002 0.10938668 1 -1
5.0059624 8.270752 0.12388778 1 -1
5.0497665 8.2760057 0.11009242 1 -1
5.0611286 8.3043575 0.14099705 1 -1
5.1000423 8.3230295 0.12254526 1 -1
5.1288223 8.3346415 0.12134778 1 -1
5.1820555 8.3318548 0.096174449 1 -1
5.2334533 8.3224478 0.12831032 1 -1
5.2523155 8.3545456 0.1206418 1 -1
5.3030434 8.3535118 0.11292085 1 -1
5.3191409 8.3710051 0.12112959 1 -1
5.3852978 8.3832417 0.10624674 1 -1
5.4107914 8.371603 0.090011537 1 -1
5.4336128 8.3846874 0.112986 1 -1
5.482604 8.3702106 0.12078604 1 -1
5.5147605 8.376832 0.11760092 1 -1
5.5606127 8.3768272 0.12236953 1 -1
5.5852609 8.3782787 0.11577067 1 -1
5.6479034 8.3675776 0.094972968 1 -1
5.6586509 8.3627434 0.10328794 1 -1
5.7014542 8.3632641 0.12202078 1 -1
5.7358394 8.3641462 0.1038239 1 -1
5.7901578 8.3449011 0.10344139 1 -1
5.8195181 8.3576183 0.11412302 1 -1
5.8547134 8.3318062 0.11614615 1 -1
5.9203429 8.3252525 0.11280771 1 -1
5.9243112 8.3114748 0.12373218 1 -1
5.9787526 8.288269 0.11461686 1 -1
6.0134659 8.2661276 0.1175313 1 -1
6.0313487 8.2672911 0.1120908 1 -1
6.0706782 8.2575188 0.12263364 1 -1
6.1075215 8.2376204 0.14068782 1 -1
6.1392975 8.2257633 0.1067566 1 -1
6.1567073 8.2041349 0.11166602 1 -1
5.1742449 7.1284447 0.36103472 3 -1
5.1732111 7.1530237 0.39473656 3 -1
5.1752801 7.1515427 0.39245966 3 -1
5.1965718 7.1741605 0.39201432 3 -1
5.1740603 7.1664066 0.39057294 3 -1
5.1879282 7.1776037 0.39000806 3 -1
5.1929646 7.1963148 0.38633552 3 -1
5.1638341 7.209538 0.37176558 3 -1
5.1790495 7.2258377 0.37675652 3 -1
5.1679454 7.2210059 0.37600946 3 -1
5.1489635 7.2497802 0.37508655 3 -1
5.1688838 7.2601247 0.36708152 3 -1
5.1624532 7.264792 0.38992101 3 -1
5.1555848 7.2915835 0.36570686 3 -1
5.1454902 7.3083482 0.35879275 3 -1
5.1429453 7.3239698 0.35597995 3 -1
5.1402574 7.3569765 0.34813455 3 -1
5.1545954 7.3502183 0.35521317 3 -1
5.1169209 7.3820348 0.35025716 3 -1
5.1288819 7.4123793 0.34324002 3 -1
5.1120605 7.4313188 0.34849429 3 -1
5.0886827 7.4636984 0.31106627 3 -1
5.0892334 7.5079489 0.30956623 3 -1
5.0284295 7.5429025 0.2878575 3 -1
4.9843922 7.6273484 0.2745499 3 -1
4.5651922 8.0893335 0.12564334 1 -1
4.5822372 8.1196976 0.1387952 1 -1
4.6144533 8.1322842 0.12743908 1 -1
4.6635895 8.1805954 0.11719763 1 -1
4.6692057 8.1733532 0.098675072 1 -1
4.7294312 8.2241592 0.12563896 1 -1
4.7534099 8.255991 0.12366927 1 -1
4.7837868 8.252634 0.11459893 1 -1
4.8198543 8.2865314 0.12739819 1 -1
4.8223433 8.311409 0.10778323 1 -1
4.8676815 8.3116598 0.13384894 1 -1
4.9255228 8.3508453 0.10281089 1 -1
4.9518929 8.368454 0.10723364 1 -1
4.9793005 8.3901949 0.12228993 1 -1
5.0515132 8.3747253 0.11246172 1 -1
5.0778055 8.3916883 0.10494915 1 -1
5.1164021 8.430171 0.11876126 1 -1
5.1582475 8.4327898 0.11152378 1 -1
5.1911526 8.44594 0.11588624 1 -1
5.2301621 8.4711819 0.11609343 1 -1
5.2806435 8.4593449 0.11016317 1 -1
5.3310714 8.4887762 0.095018476 1 -1
5.344759 8.4768753 0.11249965 1 -1
5.3936148 8.470727 0.12262744 1 -1
5.4386392 8.466918 0.12591904 1 -1
5.4856048 8.4813328 0.11827743 1 -1
5.5166578 8.4879551 0.1147806 1 -1
5.5549378 8.4897299 0.12320694 1 -1
5.5828261 8.4912739 0.1091345 1 -1
5.6341667 8.4567108 0.11447021 1 -1
5.6652884 8.4924698 0.1050915 1 -1
5.7350702 8.4763546 0.12965167 1 -1
5.7649393 8.4665842 0.089072227 1 -1
5.8076043 8.4540615 0.12435555 1 -1
5.851419 8.4514809 0.11027782 1 -1
5.9005246 8.4507809 0.10855484 1 -1
5.9397621 8.4055109 0.10441846 1 -1
5.9774113 8.4147043 0.11827394 1 -1
6.0362163 8.3959188 0.11118129 1 -1
6.0297251 8.3753042 0.093726397 1 -1
6.0970535 8.3654137 0.11956391 1 -1
6.1121769 8.3472805 0.10829759 1 -1
6.1440105 8.3317871 0.11057585 1 -1
6.1888223 8.3230228 0.12895179 1 -1
6.207037 8.2785559 0.12560955 1 -1
5.184278 7.1414361 0.37844712 3 -1
5.1783352 7.1333714 0.37594682 3 -1
5.1792464 7.1605835 0.38255066 3 -1
5.2031274 7.1686482 0.40052867 3 -1
5.1945491 7.1825576 0.38923699 3 -1
5.1839375 7.1941395 0.40144587 3 -1
5.1784825 7.1913977 0.39123851 3 -1
5.165606 7.1868896 0.39739579 3 -1
5.171566 7.2278013 0.40520778 3 -1
5.1745195 7.2482181 0.3752701 3 -1
5.1481676 7.2567177 0.390012 3 -1
5.1736255 7.2645826 0.36308712 3 -1
5.16676 7.2739172 0.35861722 3 -1
5.1451182 7.3041668 0.37049973 3 -1
5.1514392 7.296339 0.37109333 3 -1
5.1675167 7.3272123 0.35946277 3 -1
5.1442728 7.3458672 0.37423402 3 -1
5.1457777 7.3585153 0.36488113 3 -1
5.1377692 7.3686395 0.3680968 3 -1
5.113935 7.3809237 0.34211549 3 -1
5.1186328 7.4236112 0.34065765 3 -1
5.0873051 7.4785957 0.33012199 3 -1
5.0973897 7.5053244 0.33642015 3 -1
5.0534105 7.5437479 0.30808577 3 -1
5.0106554 7.6121941 0.28952524 3 -1
4.4590216 8.1774254 0.1135031 1 -1
4.5132394 8.1907063 0.11720264 1 -1
4.5331531 8.2357178 0.12061232 1 -1
4.5615535 8.2619381 0.098590404 1 -1
4.6043081 8.2841682 0.1276724 1 -1
4.660387 8.312254 0.10517617 1 -1
4.6729956 8.3323784 0.1185931 1 -1
4.7045093 8.371603 0.11056295 1 -1
4.7537909 8.4016504 0.1308949 1 -1
4.7946663 8.4106913 0.10237056 1 -1
4.8096333 8.4365749 0.1094998 1 -1
4.8658557 8.4457979 0.12389547 1 -1
4.9114418 8.4697523 0.095663607 1 -1
4.9582911 8.5004807 0.1255585 1 -1
4.9880939 8.5140018 0.11745211 1 -1
5.019587 8.5199003 0.12576973 1 -1
5.0740824 8.5515232 0.11544076 1 -1
5.1237421 8.5543957 0.11592752 1 -1
5.1704307 8.5743647 0.12460402 1 -1
5.209054 8.5766773 0.1227859 1 -1
5.2434635 8.5934019 0.12311724 1 -1
5.2990308 8.5754251 0.11908451 1 -1
5.336422 8.6042814 0.12622014 1 -1
5.3747993 8.5890141 0.15330186 1 -1
5.4340906 8.6035423 0.11468184 1 -1
5.4643359 8.6112928 0.11248162 1 -1
5.5258155 8.5966263 0.11673862 1 -1
5.5724163 8.6141424 0.12189478 1 -1
5.5998888 8.5944147 0.12174815 1 -1
5.6500821 8.6085644 0.12822199 1 -1
5.6958466 8.5889082 0.11320132 1 -1
5.7547326 8.5870161 0.11177915 1 -1
5.7903552 8.5790873 0.12051304 1 -1
5.833077 8.582305 0.12067883 1 -1
5.871954 8.5842819 0.13165039 1 -1
5.9164853 8.5495434 0.11523366 1 -1
5.9569764 8.554924 0.12523204 1 -1
5.9933705 8.5360708 0.11338437 1 -1
6.0491886 8.495882 0.132269 1 -1
6.0964217 8.4740191 0.10272983 1 -1
6.1237707 8.4754801 0.10103685 1 -1
6.1613722 8.4513588 0.11292741 1 -1
6.2216501 8.4429016 0.11698729 1 -1
6.2519588 8.4218159 0.11604892 1 -1
6.2810574 8.4020262 0.11825928 1 -1
5.1695137 7.133718 0.40735328 3 -1
5.1905813 7.1472483 0.3959617 3 -1
5.1889749 7.1504111 0.39538148 3 -1
5.2026329 7.1599994 0.39143735 3 -1
5.1781297 7.1720085 0.4069759 3 -1
5.1892047 7.2080245 0.37007734 3 -1
5.1598177 7.2026296 0.40098131 3 -1
5.1763358 7.2121944 0.39707538 3 -1
5.1674471 7.2196794 0.39902419 3 -1
5.1710329 7.2390795 0.3847923 3 -1
5.1524096 7.2419524 0.39730781 3 -1
5.1804943 7.2509871 0.38324168 3 -1
5.1708159 7.26862 0.38340542 3 -1
5.1705327 7.2711678 0.36776805 3 -1
5.1626277 7.3179698 0.37135994 3 -1
5.1523085 7.3295197 0.38404995 3 -1
5.1444521 7.3397021 0.39784682 3 -1
5.1233892 7.3764858 0.37135902 3 -1
5.1263075 7.3785524 0.36799574 3 -1
5.103301 7.4099112 0.37560898 3 -1
5.1043682 7.4364929 0.35909206 3 -1
5.1178317 7.4718957 0.35817516 3 -1
5.087204 7.4763117 0.35967222 3 -1
5.068954 7.54812 0.33508122 3 -1
4.9903402 7.6220021 0.31795317 3 -1
4.3691068 8.2878361 0.11927423 1 -1
4.4201469 8.3114347 0.131634 1 -1
4.4314985 8.3599176 0.11761507 1 -1
4.4818606 8.3842421 0.12839457 1 -1
4.5186415 8.4137392 0.12871993 1 -1
4.5568752 8.4217539 0.11745539 1 -1
4.5990744 8.4611921 0.10784355 1 -1
4.6369967 8.4822025 0.12962601 1 -1
4.677206 8.5187254 0.12882245 1 -1
4.7194571 8.5465956 0.11214355 1 -1
4.7678242 8.5589514 0.11144628 1 -1
4.7934713 8.5916786 0.13321602 1 -1
4.8463221 8.5938177 0.11968011 1 -1
4.8885098 8.6374006 0.1156863 1 -1
4.9263248 8.634902 0.10200319 1 -1
4.9945178 8.6703558 0.12429604 1 -1
5.0258937 8.684906 0.12617111 1 -1
5.0747442 8.6820908 0.1150685 1 -1
5.1330566 8.715498 0.13384372 1 -1
5.1623087 8.7169132 0.11533463 1 -1
5.2215924 8.7194881 0.13077447 1 -1
5.2705793 8.7372456 0.12802869 1 -1
5.3250141 8.7410946 0.11520264 1 -1
5.3705802 8.7455845 0.10683829 1 -1
5.4318728 8.764267 0.11253059 1 -1
5.4768443 8.7614594 0.12846395 1 -1
5.5168872 8.7470121 0.11550689 1 -1
5.5716605 8.7754831 0.12699747 1 -1
5.6140037 8.7558746 0.11630401 1 -1
5.6631761 8.7492771 0.10361144 1 -1
5.7128863 8.734024 0.10638779 1 -1
5.7632079 8.7324581 0.11128192 1 -1
5.818284 8.7165489 0.10223328 1 -1
5.8615875 8.7251873 0.096002817 1 -1
5.9016433 8.7169113 0.11774939 1 -1
5.9730883 8.7097549 0.13210449 1 -1
6.0059333 8.6864128 0.089826614 1 -1
6.0697174 8.6863174 0.11922765 1 -1
6.1032281 8.6384048 0.11545338 1 -1
6.1424747 8.6341105 0.12754625 1 -1
6.1849914 8.6069613 0.12251738 1 -1
6.2338896 8.5764084 0.12069562 1 -1
6.2833848 8.571003 0.12467702 1 -1
6.3239813 8.5530987 0.12499085 1 -1
6.3542204 8.5460138 0.12507027 1 -1
5.2071033 7.1325259 0.39694625 3 -1
5.185853 7.1413102 0.38211334 3 -1
5.205925 7.1493583 0.40343618 3 -1
5.2053251 7.1672597 0.39821094 3 -1
5.1960759 7.1816015 0.40641516 3 -1
5.1701422 7.1870961 0.39339173 3 -1
5.1751919 7.19069 0.38413554 3 -1
5.1681132 7.2209463 0.3960861 3 -1
5.1791444 7.2065096 0.41944274 3 -1
5.1716766 7.2427783 0.38155875 3 -1
5.150207 7.2597537 0.39438212 3 -1
5.1615052 7.2906704 0.39052626 3 -1
5.1556101 7.2647967 0.37645575 3 -1
5.1558952 7.2979403 0.39356005 3 -1
5.156496 7.2957444 0.39821991 3 -1
5.1399674 7.317802 0.39040959 3 -1
5.1488562 7.3446217 0.38064432 3 -1
5.1476264 7.3634381 0.37079731 3 -1
5.1403313 7.3761773 0.38055435 3 -1
5.1432962 7.4078112 0.38390177 3 -1
5.0980835 7.4428496 0.37271318 3 -1
5.092133 7.4537311 0.36618841 3 -1
5.091496 7.4864917 0.36494663 3 -1
5.0421228 7.5420237 0.33023375 3 -1
5.0007777 7.6189213 0.32246912 3 -1
4.2353296 8.3756809 0.10389045 1 -1
4.2885203 8.4388885 0.10615543 1 -1
4.3254261 8.4766045 0.11696678 1 -1
4.3740048 8.5078001 0.11078244 1 -1
4.4097981 8.5594769 0.11588573 1 -1
4.4600782 8.5801535 0.11986372 1 -1
4.48388 8.6062145 0.11505356 1 -1
4.5391164 8.6373653 0.11352271 1 -1
4.5853262 8.691515 0.12286761 1 -1
4.6400967 8.6879368 0.11754455 1 -1
4.6731191 8.7311954 0.11217958 1 -1
4.7263527 8.742713 0.11219046 1 -1
4.7743521 8.7750225 0.12096274 1 -1
4.8290029 8.7967167 0.11884391 1 -1
4.8802061 8.8139372 0.12413457 1 -1
4.9266353 8.8331823 0.12367605 1 -1
4.9891276 8.8424397 0.11716822 1 -1
5.0240574 8.8642063 0.12355721 1 -1
5.075686 8.8788385 0.099191666 1 -1
5.1391029 8.8949423 0.13068685 1 -1
5.2025466 8.8952255 0.1153926 1 -1
5.2344728 8.9026527 0.11874476 1 -1
5.2984996 8.9214211 0.11359775 1 -1
5.3475857 8.9321213 0.12152374 1 -1
5.414845 8.9019995 0.12770301 1 -1
5.452117 8.921855 0.11928028 1 -1
5.5130296 8.9361563 0.1440309 1 -1
5.5612092 8.9339428 0.12160674 1 -1
5.636734 8.9360018 0.11971718 1 -1
5.6720562 8.9277859 0.13364351 1 -1
5.7273445 8.9030256 0.12213296 1 -1
5.8057451 8.9249029 0.11096156 1 -1
5.8453526 8.9067822 0.11644039 1 -1
5.8908582 8.9089985 0.11099502 1 -1
5.947813 8.883604 0.13256124 1 -1
6.011549 8.8564415 0.12111603 1 -1
6.0551534 8.8611212 0.11309323 1 -1
6.1178136 8.8341599 0.12514299 1 -1
6.1717386 8.8294687 0.12860659 1 -1
6.2171516 8.8030062 0.10716382 1 -1
6.2634997 8.7493687 0.1122677 1 -1
6.3117352 8.7396116 0.1147339 1 -1
6.345911 8.7151566 0.11466648 1 -1
6.3980417 8.6912851 0.12587368 1 -1
6.4111719 8.6782274 0.11484632 1 -1
5.1987009 7.1259336 0.42063791 3 -1
5.1822605 7.1323409 0.40568289 3 -1
5.1828084 7.1636896 0.40446475 3 -1
5.1826949 7.1867332 0.41291076 3 -1
5.1787949 7.1695671 0.40946087 3 -1
5.1915908 7.1830812 0.40786856 3 -1
5.1766443 7.1852412 0.42086485 3 -1
5.176333 7.1982636 0.41032192 3 -1
5.1736345 7.2219052 0.41276088 3 -1
5.1597404 7.2488589 0.38811287 3 -1
5.1804142 7.2414865 0.4366861 3 -1
5.1921444 7.2560019 0.39781514 3 -1
5.148016 7.286809 0.39828387 3 -1
5.1715398 7.2809882 0.40835482 3 -1
5.1672688 7.3188949 0.39865038 3 -1
5.1578794 7.3156033 0.40371448 3 -1
5.1505136 7.331501 0.38403043 3 -1
5.1336451 7.357214 0.38134921 3 -1
5.143096 7.3796029 0.37979066 3 -1
5.1158695 7.3969207 0.39136061 3 -1
5.0949874 7.4293704 0.38153046 3 -1
5.0946541 7.460865 0.38227275 3 -1
5.0688419 7.4842448 0.36416766 3 -1
5.0534563 7.5361738 0.34007907 3 -1
5.0080566 7.6244097 0.35487732 3 -1
4.0918517 8.540329 0.10385922 1 -1
4.1258426 8.5858555 0.10988872 1 -1
4.1567473 8.6349831 0.13052015 1 -1
4.2035537 8.6688662 0.12718347 1 -1
4.2692299 8.7045918 0.13433611 1 -1
4.3102746 8.7466593 0.10957789 1 -1
4.3692331 8.7738171 0.12652352 1 -1
4.4111385 8.8122025 0.12208423 1 -1
4.4615984 8.8349133 0.10513093 1 -1
4.5284066 8.8746471 0.11210272 1 -1
4.5887132 8.9140472 0.12956029 1 -1
4.6234779 8.9465923 0.11517397 1 -1
4.6821651 8.9732904 0.10510495 1 -1
4.7370992 8.9833469 0.1082767 1 -1
4.8029227 9.0209589 0.12960619 1 -1
4.8382006 9.0287685 0.11421508 1 -1
4.9185286 9.0584354 0.11631279 1 -1
4.9717121 9.07409 0.11310396 1 -1
5.0593462 9.0872831 0.12244612 1 -1
5.1083179 9.0828991 0.13303912 1 -1
5.1587405 9.1104927 0.13593495 1 -1
5.2289338 9.1160498 0.11392358 1 -1
5.2613525 9.1386776 0.10979113 1 -1
5.3451133 9.1398926 0.11998224 1 -1
5.4050851 9.1453714 0.10737535 1 -1
5.4635019 9.165781 0.11278734 1 -1
5.514729 9.1313086 0.12822109 1 -1
5.5753317 9.1392984 0.12745994 1 -1
5.6265154 9.1553183 0.12175626 1 -1
5.7058973 9.1494255 0.10814926 1 -1
5.7528205 9.1273203 0.11177444 1 -1
5.8179216 9.116333 0.13282195 1 -1
5.8875017 9.1256428 0.12033916 1 -1
5.9559088 9.0865974 0.11323944 1 -1
6.0195923 9.1062355 0.10239872 1 -1
6.0664816 9.0659866 0.12606776 1 -1
6.110899 9.0415592 0.12814957 1 -1
6.1728535 9.0384579 0.12790507 1 -1
6.228693 9.0103874 0.13697392 1 -1
6.2882261 9.0130672 0.11944523 1 -1
6.352181 8.9644842 0.1179412 1 -1
6.4027529 8.943346 0.12099984 1 -1
6.4431853 8.9331465 0.12790459 1 -1
6.5160365 8.9020195 0.12750375 1 -1
6.5284042 8.8652744 0.13450289 1 -1
5.179666 7.142529 0.42666626 3 -1
5.1863198 7.1490507 0.4267633 3 -1
5.191555 7.1495929 0.42600194 3 -1
5.1914988 7.174686 0.40454614 3 -1
5.1972747 7.1719203 0.42486742 3 -1
5.1826496 7.1836529 0.38990897 3 -1
5.1881189 7.2011361 0.40893474 3 -1
5.1927352 7.2153606 0.41949385 3 -1
5.1639643 7.2242441 0.40862653 3 -1
5.1735473 7.2314444 0.41117001 3 -1
5.1819248 7.2608151 0.40900633 3 -1
5.1709528 7.2584047 0.40403807 3 -1
5.1703405 7.2685766 0.40519291 3 -1
5.1626644 7.2944736 0.39722526 3 -1
5.1432838 7.3052063 0.42526817 3 -1
5.1476307 7.3148866 0.42229187 3 -1
5.146924 7.3371711 0.41632342 3 -1
5.1408539 7.3607054 0.39016783 3 -1
5.1279359 7.3736033 0.39359981 3 -1
5.1248684 7.3984165 0.41619474 3 -1
5.1067295 7.4278474 0.39629918 3 -1
5.0976772 7.4626775 0.37965333 3 -1
5.0931058 7.5018983 0.37737656 3 -1
5.0431352 7.5366569 0.37653831 3 -1
4.993299 7.6183572 0.35579082 3 -1
3.8942037 8.7562351 0.13083488 1 -1
3.9437099 8.7846966 0.13352209 1 -1
3.985086 8.8363543 0.13409889 1 -1
4.0344877 8.8983707 0.10911909 1 -1
4.0893092 8.9192247 0.12421632 1 -1
4.1396041 8.9686279 0.12463889 1 -1
4.2053261 9.0005941 0.13198578 1 -1
4.2523527 9.0507059 0.12891173 1 -1
4.3135633 9.0924959 0.10639966 1 -1
4.3949594 9.1142015 0.13851711 1 -1
4.4453306 9.1371384 0.11820295 1 -1
4.5073853 9.1896601 0.11660776 1 -1
4.5830412 9.19835 0.11858234 1 -1
4.629035 9.2589426 0.11344828 1 -1
4.7043014 9.2684069 0.1193499 1 -1
4.7520361 9.3157568 0.10249946 1 -1
4.8357143 9.3331242 0.12820026 1 -1
4.9194021 9.3409567 0.12086535 1 -1
4.9725156 9.352562 0.11392382 1 -1
5.0447087 9.3633518 0.13840234 1 -1
5.1070838 9.3760748 0.11963511 1 -1
5.1601634 9.3754082 0.12057209 1 -1
5.2522736 9.4207249 0.13480577 1 -1
5.3170738 9.4182663 0.1180757 1 -1
5.3707013 9.4229069 0.11798754 1 -1
5.4549599 9.4229002 0.12028453 1 -1
5.5171924 9.4207153 0.13097823 1 -1
5.5711465 9.4313002 0.12685362 1 -1
5.6728034 9.4160051 0.12861875 1 -1
5.7306852 9.420702 0.13490584 1 -1
5.7891946 9.4127655 0.12208268 1 -1
5.8644576 9.3912687 0.12668884 1 -1
5.9257221 9.3963242 0.12771535 1 -1
5.9992008 9.3717031 0.11664811 1 -1
6.0724916 9.3661156 0.13019881 1 -1
6.1338472 9.3590946 0.13497823 1 -1
6.195384 9.319519 0.12557903 1 -1
6.2677579 9.2746286 0.14046541 1 -1
6.3324189 9.2585659 0.12127656 1 -1
6.3924284 9.2104521 0.1281741 1 -1
6.4587221 9.2102118 0.1338723 1 -1
6.5348773 9.1888885 0.1459282 1 -1
6.597652 9.1672754 0.12192415 1 -1
6.6387157 9.1293812 0.108431 1 -1
6.6837273 9.0927505 0.11965275 1 -1
5.1813726 7.1400595 0.41497007 3 -1
5.1850052 7.1452928 0.41305369 3 -1
5.1904964 7.1590624 0.4147622 3 -1
5.1723065 7.1639767 0.42012498 3 -1
5.1854529 7.1861186 0.42355567 3 -1
5.1859183 7.1827855 0.41288686 3 -1
5.1756811 7.1814346 0.42288604 3 -1
5.1883392 7.1986942 0.41922775 3 -1
5.1686263 7.2277064 0.43701375 3 -1
5.1833963 7.2467327 0.41863987 3 -1
5.1793518 7.2419553 0.41822445 3 -1
5.1507587 7.2674599 0.42525053 3 -1
5.1749849 7.2759676 0.42167538 3 -1
5.1551723 7.2874613 0.41513667 3 -1
5.1703629 7.3019705 0.43298236 3 -1
5.1606102 7.3137689 0.42970896 3 -1
5.1532035 7.3435659 0.40250391 3 -1
5.1237807 7.3486977 0.42106852 3 -1
5.1198792 7.3882232 0.41753116 3 -1
5.1342759 7.4114265 0.40684822 3 -1
5.1148052 7.4248986 0.41311491 3 -1
5.1097603 7.4705563 0.38925076 3 -1
5.0697989 7.5149498 0.40879408 3 -1
5.047791 7.55722 0.38778475 3 -1
4.9867358 7.6169143 0.36778355 3 -1
3.6375928 9.0122185 0.13412559 1 -1
3.6946425 9.0496626 0.13112649 1 -1
3.7466497 9.1014633 0.13667211 1 -1
3.816587 9.1541777 0.13164288 1 -1
3.8581932 9.1990652 0.12604818 1 -1
3.9318814 9.2829571 0.13128152 1 -1
4.0222712 9.3007975 0.12858978 1 -1
4.0627356 9.3544464 0.12342468 1 -1
4.1390233 9.3919983 0.12849495 1 -1
4.2006497 9.4504004 0.12455478 1 -1
4.2733011 9.4718904 0.12630552 1 -1
4.3513894 9.4997292 0.11694077 1 -1
4.422617 9.5467854 0.12953469 1 -1
4.482305 9.5637274 0.12456268 1 -1
4.5721097 9.609375 0.12461755 1 -1
4.6288319 9.6439667 0.10927013 1 -1
4.7143087 9.6493511 0.13151911 1 -1
4.7839608 9.6983652 0.14192617 1 -1
4.8819475 9.708128 0.11998302 1 -1
4.9450178 9.7310305 0.12329796 1 -1
5.0431786 9.744278 0.13090453 1 -1
5.1066632 9.7306843 0.12632197 1 -1
5.185339 9.757267 0.13102207 1 -1
5.2798529 9.773757 0.12963206 1 -1
5.3457155 9.7787037 0.13654017 1 -1
5.4470682 9.788332 0.13194758 1 -1
5.5221872 9.792841 0.13142395 1 -1
5.5898347 9.7641697 0.12428442 1 -1
5.6522155 9.7828379 0.1187146 1 -1
5.7598257 9.7620144 0.12683782 1 -1
5.8366942 9.7623491 0.12857139 1 -1
5.9162025 9.7668877 0.12736639 1 -1
5.9919491 9.7385607 0.12153238 1 -1
6.0787106 9.7312298 0.1188972 1 -1
6.1458683 9.6956367 0.11974534 1 -1
6.2272773 9.6743736 0.11654386 1 -1
6.324728 9.6399918 0.12451407 1 -1
6.3826532 9.6268167 0.12460688 1 -1
6.4612045 9.6008482 0.11157063 1 -1
6.522305 9.5689573 0.13193026 1 -1
6.6026554 9.5391226 0.12293866 1 -1
6.6633387 9.5051899 0.13069427 1 -1
6.7569246 9.4660473 0.13392588 1 -1
6.8318386 9.4340458 0.11988354 1 -1
6.854053 9.4128819 0.12468505 1 -1
5.1986327 7.1507888 0.4495953 3 -1
5.1870751 7.1418262 0.43351504 3 -1
5.1915145 7.1523571 0.43581104 3 -1
5.1792192 7.159903 0.42857641 3 -1
5.1924357 7.1715655 0.42899764 3 -1
5.1810989 7.1969771 0.42740649 3 -1
5.1656804 7.1865849 0.41889548 3 -1
5.1669049 7.2034545 0.45005316 3 -1
5.175415 7.2285504 0.42841554 3 -1
5.1784797 7.2247825 0.44021362 3 -1
5.1634779 7.2513747 0.43155748 3 -1
5.1874881 7.2322211 0.42617998 3 -1
5.1715612 7.2633233 0.42489663 3 -1
5.1631927 7.283154 0.42921788 3 -1
5.1646695 7.3030019 0.41753638 3 -1
5.1467786 7.3178334 0.44078457 3 -1
5.147212 7.3581619 0.44084284 3 -1
5.1383905 7.3624573 0.42874855 3 -1
5.126164 7.3601856 0.41370767 3 -1
5.1038551 7.3729305 0.41692415 3 -1
5.1269193 7.4313025 0.41349056 3 -1
5.1064024 7.459784 0.40230066 3 -1
5.0820522 7.4911084 0.39667213 3 -1
5.0515099 7.5351381 0.40502796 3 -1
5.0106521 7.5916333 0.39176092 3 -1
3.2730794 9.325428 0.14202896 1 -1
3.3259833 9.4187336 0.13345036 1 -1
3.4155729 9.4866686 0.13057837 1 -1
3.4792252 9.5416336 0.13164276 1 -1
3.5736349 9.5898952 0.11748876 1 -1
3.6435719 9.6533756 0.12227938 1 -1
3.7166061 9.7270622 0.13526577 1 -1
3.7864375 9.7497749 0.14396918 1 -1
3.874824 9.8002853 0.1264427 1 -1
3.9552855 9.8536816 0.13270137 1 -1
4.0568771 9.9212456 0.1253852 1 -1
4.1069465 9.9385319 0.13218269 1 -1
4.2281909 9.9914465 0.13827837 1 -1
4.2968755 10.053751 0.1323168 1 -1
4.3814292 10.066187 0.13528827 1 -1
4.4811363 10.100019 0.12539801 1 -1
4.5770979 10.113907 0.13879606 2 -1
4.6770444 10.117758 0.14733219 2 -1
4.7688842 10.106332 0.16274878 2 -1
4.8697863 10.122433 0.14603126 2 -1
4.9765854 10.102453 0.11760849 1 -1
5.0630345 10.107084 0.16700116 1 -1
5.1623802 10.121709 0.14102101 2 -1
5.245574 10.110034 0.16415644 2 -1
5.3430138 10.115082 0.14750367 2 -1
5.4323006 10.107803 0.15568078 2 -1
5.5150857 10.105598 0.14898497 2 -1
5.6104736 10.092742 0.12280366 2 -1
5.6978087 10.088844 0.1559065 2 -1
5.7819185 10.091356 0.14674574 2 -1
5.8708215 10.088682 0.13091868 2 -1
5.9489322 10.100713 0.14998436 2 -1
6.072298 10.088314 0.14308459 2 -1
6.1479206 10.105233 0.12666321 2 -1
6.2422514 10.071133 0.15341067 2 -1
6.3320837 10.073041 0.14874926 2 -1
6.4450378 10.100336 0.11625195 1 -1
6.5300198 10.101566 0.13427037 2 -1
6.6349778 10.066607 0.14057598 1 -1
6.7175975 10.025984 0.13952032 1 -1
6.8052702 9.9778452 0.14072138 1 -1
6.8969269 9.9355373 0.12859526 1 -1
6.9840322 9.8960943 0.15368077 1 -1
7.0488629 9.8564701 0.12822056 1 -1
7.0772791 9.8222694 0.13248307 1 -1
5.1900458 7.1311307 0.45069885 3 -1
5.1788926 7.1627526 0.42890036 3 -1
5.1898866 7.1667514 0.4333857 3 -1
5.1928554 7.140954 0.43188241 3 -1
5.1858296 7.1809096 0.45757732 3 -1
5.1870599 7.1977282 0.43706024 3 -1
5.1890249 7.1791925 0.43104523 3 -1
5.1762652 7.2193522 0.4580406 3 -1
5.1467409 7.2211609 0.42802376 3 -1
5.1758704 7.2340188 0.44469765 3 -1
5.1627631 7.2492528 0.43992305 3 -1
5.1659651 7.2498755 0.44610539 3 -1
5.1663623 7.2582693 0.43939519 3 -1
5.1425571 7.2900009 0.43279234 3 -1
5.1605792 7.3116302 0.41674733 3 -1
5.1391683 7.326889 0.44129366 3 -1
5.1379218 7.3443398 0.44445708 3 -1
5.1313086 7.3436823 0.43478829 3 -1
5.121314 7.3974867 0.4304181 3 -1
5.1285081 7.4199491 0.42969814 3 -1
5.1115761 7.4112086 0.42473575 3 -1
5.1125226 7.466002 0.42408872 3 -1
5.0643668 7.4988222 0.41604218 3 -1
5.0684824 7.5391831 0.41487551 3 -1
5.0111251 7.60322 0.39703751 3 -1
2.7579246 9.8456364 0.13798442 1 -1
2.8552728 9.9456024 0.13990447 1 -1
2.9331243 9.9890118 0.13784823 1 -1
3.032017 10.088551 0.14398715 1 -1
3.1084063 10.131239 0.14627478 1 -1
3.2708149 10.14901 0.15853676 2 -1
3.4105792 10.122796 0.15027273 2 -1
3.5495131 10.144899 0.15697113 2 -1
3.6884022 10.138021 0.17040619 2 -1
3.7975206 10.12974 0.17768186 2 -1
3.9195266 10.125539 0.17313659 2 -1
4.040225 10.127026 0.1919944 2 -1
4.1400566 10.129049 0.18142819 2 -1
4.2812662 10.125434 0.20796335 2 -1
4.3601112 10.122332 0.20176616 2 -1
4.4721613 10.125889 0.20379761 2 -1
4.5885386 10.120459 0.19624493 2 -1
4.6592531 10.124261 0.20938239 2 -1
4.7649589 10.117782 0.2156215 2 -1
4.8563356 10.118338 0.1943188 2 -1
4.9469681 10.121853 0.21544036 2 -1
5.0576911 10.118567 0.21561629 2 -1
5.1520677 10.12282 0.20366752 2 -1
5.2495456 10.114681 0.19280466 2 -1
5.3244014 10.106958 0.22622594 2 -1
5.4208341 10.094639 0.21075213 2 -1
5.5032892 10.116096 0.21909264 2 -1
5.5899682 10.093639 0.21559042 2 -1
5.6900668 10.094968 0.231314 2 -1
5.7903867 10.106125 0.21511078 2 -1
5.8744149 10.106367 0.22772244 2 -1
5.9734249 10.107141 0.21672446 2 -1
6.0707259 10.090199 0.22001588 2 -1
6.1576543 10.078431 0.21006703 2 -1
6.2397928 10.095957 0.21687698 2 -1
6.3277721 10.093573 0.21431208 2 -1
6.4332619 10.105062 0.20993304 2 -1
6.545012 10.102427 0.21307018 2 -1
6.638876 10.081585 0.19234416 2 -1
6.7230506 10.091915 0.204074 2 -1
6.8508153 10.076426 0.19338173 2 -1
6.9456234 10.078342 0.19459549 2 -1
7.0578842 10.068596 0.17797011 2 -1
7.1603551 10.036936 0.1884675 2 -1
7.096333 9.8681641 0.19692636 2 -1
5.1918774 7.1305957 0.44445094 3 -1
5.1868997 7.1425147 0.45548058 3 -1
5.1784773 7.1558352 0.44285357 3 -1
5.1892834 7.1826925 0.44851404 3 -1
5.1827269 7.1665154 0.43875822 3 -1
5.1796732 7.1832843 0.44101033 3 -1
5.1785431 7.1980081 0.43711901 3 -1
5.1662493 7.2098045 0.43055093 3 -1
5.187623 7.223876 0.452658 3 -1
5.1811924 7.2320518 0.45840743 3 -1
5.1584597 7.2447882 0.44302869 3 -1
5.1799049 7.2640271 0.44911221 3 -1
5.1526308 7.268043 0.4500162 3 -1
5.1616526 7.2975364 0.44270343 3 -1
5.1510468 7.2919784 0.45860922 3 -1
5.1378584 7.3122029 0.44403249 3 -1
5.1401181 7.3269768 0.46536955 3 -1
5.1321678 7.336525 0.45610914 3 -1
5.1297655 7.3832893 0.44815341 3 -1
5.1182885 7.4027123 0.44282854 3 -1
5.1201534 7.4431958 0.44138452 3 -1
5.0902591 7.440877 0.43319374 3 -1
5.0979204 7.4871726 0.43816903 3 -1
5.0637622 7.5354767 0.40495172 3 -1
4.9788246 7.6046796 0.43248868 3 -1
2.4605854 10.166214 0.20499817 2 -1
2.6263087 10.182648 0.19413653 2 -1
2.8034492 10.150472 0.22452936 2 -1
2.9705844 10.146967 0.19842026 2 -1
3.1442368 10.145578 0.19839555 2 -1
3.2738371 10.140347 0.23294893 2 -1
3.4129348 10.143068 0.24487618 2 -1
3.5446837 10.122337 0.25425643 2 -1
3.7014451 10.148383 0.2359542 2 -1
3.8189096 10.156355 0.24467418 2 -1
3.9114919 10.117221 0.25568336 2 -1
4.0233879 10.144437 0.2543903 2 -1
4.1470308 10.120101 0.26703358 2 -1
4.2571378 10.129623 0.267463 2 -1
4.3679271 10.126033 0.26570874 2 -1
4.4632382 10.112374 0.27260047 2 -1
4.5572529 10.090985 0.2571598 2 -1
4.660162 10.11867 0.27923805 2 -1
4.7674961 10.118834 0.27491087 2 -1
4.8664236 10.122947 0.26608166 2 -1
4.9728322 10.111102 0.27738699 2 -1
5.0660558 10.117928 0.28054476 2 -1
5.163363 10.10462 0.27291781 2 -1
5.2331147 10.106236 0.29557854 2 -1
5.3287854 10.120784 0.27085352 2 -1
5.4251862 10.100508 0.27128261 2 -1
5.5122504 10.093614 0.27059543 2 -1
5.6007895 10.096436 0.26459193 2 -1
5.6925602 10.09374 0.28104568 2 -1
5.7842455 10.090797 0.26079348 2 -1
5.8837962 10.086467 0.2753112 2 -1
5.9779129 10.102974 0.27874494 2 -1
6.0697684 10.110703 0.28195328 2 -1
6.1583452 10.09888 0.27454302 2 -1
6.2214313 10.083306 0.26062024 2 -1
6.3266349 10.082359 0.28330445 2 -1
6.4465408 10.076044 0.29487386 2 -1
6.5437007 10.072377 0.26520973 2 -1
6.6529217 10.08563 0.27497765 2 -1
6.7299962 10.059386 0.26887274 2 -1
6.8528852 10.087585 0.27494949 2 -1
6.9488802 10.089442 0.26504904 2 -1
7.0589676 10.066994 0.2329202 2 -1
7.1415882 10.0223 0.25560188 2 -1
7.0945811 9.8614597 0.27351189 2 -1
5.1935263 7.1470871 0.44542152 3 -1
5.1675634 7.1434126 0.44690078 3 -1
5.2032342 7.1761484 0.46487316 3 -1
5.1779852 7.1614122 0.46383181 3 -1
5.193943 7.1709328 0.45465702 3 -1
5.176465 7.1819992 0.45662951 3 -1
5.1801596 7.2038603 0.45363691 3 -1
5.1755066 7.2239594 0.44587007 3 -1
5.1871839 7.2348261 0.44386131 3 -1
5.1737843 7.2249722 0.43884569 3 -1
5.1822562 7.2556405 0.44651896 3 -1
5.1530046 7.2392931 0.43922511 3 -1
5.1721773 7.277792 0.46590099 3 -1
5.1589508 7.2918582 0.44684479 3 -1
5.1677074 7.3058429 0.44644222 3 -1
5.1317677 7.3282728 0.43829021 3 -1
5.1529446 7.337183 0.43699437 3 -1
5.1295419 7.3528962 0.45605317 3 -1
5.1407528 7.3704257 0.45671922 3 -1
5.1150036 7.393033 0.4651444 3 -1
5.1121926 7.4206533 0.45925656 3 -1
5.1024489 7.467628 0.45973903 3 -1
5.0753736 7.4950757 0.43336818 3 -1
5.0507789 7.5327268 0.44351971 3 -1
5.0056763 7.6299324 0.43916476 3 -1
2.465518 10.162354 0.28549582 2 -1
2.6189928 10.146572 0.30146131 2 -1
2.8100958 10.155846 0.28726685 2 -1
2.9611206 10.1328 0.2872704 2 -1
3.1263156 10.143301 0.30701882 2 -1
3.2614844 10.1359 0.30708075 2 -1
3.4024706 10.137291 0.32429898 2 -1
3.5484457 10.141542 0.31849936 2 -1
3.6772499 10.155991 0.32269219 2 -1
3.7863269 10.15543 0.31952724 2 -1
3.9200573 10.118252 0.29969794 2 -1
4.0487218 10.131159 0.32825378 2 -1
4.1466041 10.1343 0.3354831 2 -1
4.255126 10.126917 0.34847897 2 -1
4.3637061 10.135187 0.31854731 2 -1
4.4736319 10.114183 0.32479331 2 -1
4.5838876 10.109282 0.30585974 2 -1
4.6742201 10.123257 0.32474771 2 -1
4.7743998 10.105886 0.3366257 2 -1
4.8765965 10.103729 0.33423811 2 -1
4.9502873 10.109304 0.32847559 2 -1
5.0694485 10.11553 0.33506036 2 -1
5.1480246 10.099751 0.34097028 2 -1
5.2293591 10.116714 0.35752279 2 -1
5.3384233 10.106373 0.34920946 2 -1
5.4396639 10.098473 0.33869922 2 -1
5.5109835 10.085379 0.32412642 2 -1
5.6097116 10.082787 0.34224504 2 -1
5.683804 10.090969 0.35762033 2 -1
5.7772236 10.097511 0.33591819 2 -1
5.8651686 10.08894 0.34972101 2 -1
5.9682674 10.091604 0.34053224 2 -1
6.0629296 10.09853 0.32549435 2 -1
6.1462917 10.083679 0.34391636 2 -1
6.2500577 10.103743 0.32484537 2 -1
6.3378596 10.084671 0.34372121 2 -1
6.4308677 10.074986 0.34171027 2 -1
6.5228329 10.074051 0.33369339 2 -1
6.6533751 10.083612 0.34518421 2 -1
6.743927 10.084593 0.32264137 2 -1
6.8323622 10.081245 0.31764233 2 -1
6.9551373 10.083169 0.32622224 2 -1
7.0670266 10.075603 0.3222321 2 -1
7.1715164 10.024755 0.31199926 2 -1
7.0877357 9.8634129 0.33541816 2 -1
5.1734977 7.1226878 0.46512318 3 -1
5.1897779 7.1563296 0.44866446 3 -1
5.188766 7.1707129 0.47318628 3 -1
5.1947179 7.1733546 0.4720659 3 -1
5.1991181 7.1683183 0.46242127 3 -1
5.1878881 7.1917081 0.44874981 3 -1
5.1895466 7.2008805 0.46756202 3 -1
5.1663232 7.1988964 0.46461418 3 -1
5.1682162 7.2288804 0.45466018 3 -1
5.1579037 7.2480097 0.4638496 3 -1
5.1661215 7.267077 0.45872629 3 -1
5.1606927 7.2671924 0.4689579 3 -1
5.1708665 7.2789011 0.46128318 3 -1
5.1802359 7.2842851 0.47210658 3 -1
5.1625185 7.3184237 0.4708297 3 -1
5.1605725 7.3175635 0.46284547 3 -1
5.1457047 7.3405285 0.4512825 3 -1
5.1330814 7.3550158 0.45851266 3 -1
5.1321692 7.3786502 0.45433375 3 -1
5.1172433 7.3938179 0.44499472 3 -1
5.0989513 7.4244165 0.46109721 3 -1
5.097434 7.4741082 0.4639377 3 -1
5.0662589 7.4959469 0.46781492 3 -1
5.0396562 7.5243273 0.46031663 3 -1
5.0233741 7.6199694 0.44983077 3 -1
2.4439609 10.152898 0.38684568 2 -1
2.6297317 10.163787 0.389723 2 -1
2.7969053 10.146276 0.39176622 2 -1
2.9683819 10.149981 0.37840894 2 -1
3.1311605 10.150175 0.40840489 2 -1
3.2647376 10.146355 0.3835341 2 -1
3.412271 10.142508 0.39832342 2 -1
3.5558267 10.153175 0.39262456 2 -1
3.6925035 10.146798 0.40720603 2 -1
3.802947 10.129107 0.39030463 2 -1
3.9313269 10.137459 0.40852666 2 -1
4.0337496 10.133127 0.37679476 2 -1
4.125844 10.137465 0.39102501 2 -1
4.2506819 10.120369 0.41985804 2 -1
4.3745117 10.133352 0.40565541 2 -1
4.4658351 10.133997 0.40348554 2 -1
4.5860181 10.117414 0.40830052 2 -1
4.6786709 10.107049 0.40575033 2 -1
4.7617626 10.115643 0.40948653 2 -1
4.8606482 10.115301 0.39490306 2 -1
4.9547148 10.11552 0.41784671 2 -1
5.0572724 10.130904 0.40060425 2 -1
5.1690745 10.121082 0.40207404 2 -1
5.2281008 10.100451 0.40855879 2 -1
5.3242617 10.106131 0.41796035 2 -1
5.4155931 10.106249 0.40555945 2 -1
5.5000386 10.108144 0.40222576 2 -1
5.5780768 10.103233 0.40682548 2 -1
5.7055483 10.095524 0.41837808 2 -1
5.7955389 10.082718 0.40216437 2 -1
5.8690419 10.098383 0.41011959 2 -1
5.9668469 10.08128 0.4072305 2 -1
6.0501304 10.105683 0.39045534 2 -1
6.160388 10.096206 0.40261102 2 -1
6.227407 10.077698 0.42204913 2 -1
6.3320994 10.080101 0.40213093 2 -1
6.4374914 10.06111 0.40819049 2 -1
6.5304265 10.061769 0.40145355 2 -1
6.6405058 10.084398 0.39262855 2 -1
6.7307644 10.090678 0.40191022 2 -1
6.8416266 10.083384 0.40763006 2 -1
6.9529362 10.093045 0.39132336 2 -1
7.0750637 10.062865 0.40884855 2 -1
7.1449933 10.012883 0.39550194 2 -1
7.113615 9.8488522 0.39252374 2 -1
5.1789398 7.1320133 0.47043514 3 -1
5.197217 7.1461391 0.47617835 3 -1
5.1840353 7.1543508 0.4898546 3 -1
5.2092285 7.1654201 0.46592569 3 -1
5.1867957 7.1687078 0.47813556 3 -1
5.1822085 7.1925135 0.47874436 3 -1
5.2047906 7.2187324 0.45931986 3 -1
5.1778851 7.2206573 0.46780097 3 -1
5.2028046 7.2210045 0.44617787 3 -1
5.166492 7.2363544 0.46988687 3 -1
5.1702466 7.2507286 0.46538153 3 -1
5.1790657 7.245461 0.47420406 3 -1
5.1610289 7.2774982 0.48328158 3 -1
5.17453 7.2912369 0.45324677 3 -1
5.1431131 7.2947116 0.46664652 3 -1
5.1403837 7.3202062 0.46436033 3 -1
5.158587 7.3325171 0.46970856 3 -1
5.1410232 7.3471632 0.47427419 3 -1
5.1573014 7.3791022 0.46528649 3 -1
5.1374965 7.4136381 0.45434391 3 -1
5.105617 7.4200873 0.48058367 3 -1
5.088603 7.4611955 0.47427195 3 -1
5.0744567 7.4987159 0.45308113 3 -1
5.0312152 7.5520821 0.4507288 3 -1
5.0052342 7.6213183 0.47759676 3 -1
2.4331851 10.155964 0.46764556 2 -1
2.6191821 10.162379 0.47699887 2 -1
2.80196 10.15653 0.47133729 2 -1
2.9592307 10.16767 0.47740844 2 -1
3.1306715 10.141783 0.47803068 2 -1
3.2685542 10.141507 0.46611622 2 -1
3.4204769 10.140408 0.45839205 2 -1
3.5370958 10.130173 0.48244882 2 -1
3.6994991 10.126858 0.46921873 2 -1
3.8197951 10.12361 0.47860852 2 -1
3.9164681 10.129831 0.45569566 2 -1
4.0407953 10.136408 0.4687252 2 -1
4.1473665 10.130832 0.46830034 2 -1
4.2685165 10.129337 0.48878556 2 -1
4.3828678 10.120826 0.48359832 2 -1
4.48668 10.128283 0.47012594 2 -1
4.5707803 10.109404 0.47278467 2 -1
4.6660266 10.132171 0.46432626 2 -1
4.7802181 10.129374 0.48016286 2 -1
4.8754101 10.099855 0.46810234 2 -1
4.9700637 10.119285 0.48220173 2 -1
5.0596409 10.103903 0.47086278 2 -1
5.1537514 10.125103 0.46936131 2 -1
5.2535868 10.114122 0.47353503 2 -1
5.3386612 10.099576 0.45158857 2 -1
5.4421215 10.105064 0.47068334 2 -1
5.504293 10.102456 0.48366496 2 -1
5.6149292 10.116531 0.45123944 2 -1
5.6973467 10.102924 0.4673143 2 -1
5.7975211 10.101127 0.45930994 2 -1
5.8642764 10.098169 0.47091952 2 -1
5.9739165 10.07502 0.47914925 2 -1
6.0785275 10.087179 0.4672294 2 -1
6.1677308 10.085775 0.47989017 2 -1
6.2348733 10.098854 0.47230583 2 -1
6.3389015 10.101341 0.47686633 2 -1
6.4444294 10.080927 0.4678112 2 -1
6.5347972 10.082273 0.46101144 2 -1
6.646697 10.088163 0.46847358 2 -1
6.7241688 10.073362 0.46791744 2 -1
6.8245335 10.076701 0.47693941 2 -1
6.9366522 10.079969 0.46988165 2 -1
7.0562139 10.067933 0.44371602 2 -1
7.1730804 10.030629 0.47150356 2 -1
7.1054749 9.862196 0.47607732 2 -1
5.1838784 7.1525483 0.46888253 3 -1
5.1890841 7.1713328 0.46868834 3 -1
5.1761522 7.1561503 0.48762727 3 -1
5.1880064 7.1793737 0.4930279 3 -1
5.2014089 7.1785903 0.47835779 3 -1
5.1847754 7.1981602 0.48362693 3 -1
5.1908255 7.1941657 0.47991833 3 -1
5.1673779 7.2196965 0.46750674 3 -1
5.1601515 7.1969504 0.47464177 3 -1
5.1673226 7.231925 0.4699108 3 -1
5.1637206 7.2326984 0.48098266 3 -1
5.1927638 7.2666545 0.47299463 3 -1
5.175705 7.2910151 0.47450173 3 -1
5.1737576 7.2970881 0.47025436 3 -1
5.1514864 7.2952962 0.49115902 3 -1
5.1401253 7.3304663 0.46146816 3 -1
5.1526284 7.3438334 0.49826017 3 -1
5.1533375 7.3680992 0.48684666 3 -1
5.1210041 7.3875732 0.49284577 3 -1
5.1120715 7.4123569 0.47490555 3 -1
5.1167893 7.4311905 0.47441345 3 -1
5.0930476 7.4611845 0.47700605 3 -1
5.0878301 7.4968486 0.48382366 3 -1
5.0506811 7.5365019 0.47219679 3 -1
5.0134506 7.6161056 0.48008904 3 -1
2.4527576 10.164537 0.56812769 2 -1
2.6287117 10.154092 0.56212759 2 -1
2.8197744 10.153149 0.56938756 2 -1
2.9797683 10.172647 0.55941105 2 -1
3.128788 10.147239 0.56296611 2 -1
3.2689431 10.157011 0.53614295 2 -1
3.4130721 10.132295 0.55685729 2 -1
3.5551887 10.128536 0.56228375 2 -1
3.6753044 10.136625 0.54649198 2 -1
3.8056097 10.11264 0.55687046 2 -1
3.9215393 10.119882 0.52186596 2 -1
4.0516949 10.124071 0.54438519 2 -1
4.1455145 10.12896 0.55869567 2 -1
4.2640958 10.122569 0.55849928 2 -1
4.3714538 10.131933 0.52696002 2 -1
4.4748802 10.10654 0.52204996 2 -1
4.5927496 10.121459 0.53854978 2 -1
4.6934209 10.093742 0.51394337 2 -1
4.7599697 10.111567 0.532148 2 -1
4.8618202 10.120213 0.53480822 2 -1
4.9651871 10.10181 0.54028469 2 -1
5.0669894 10.119043 0.53594053 2 -1
5.1712489 10.096998 0.53941017 2 -1
5.2426329 10.099375 0.52525717 2 -1
5.33114 10.092804 0.53358239 2 -1
5.4272056 10.10269 0.53990763 2 -1
5.5075512 10.106209 0.53514922 2 -1
5.6056542 10.091883 0.52519321 2 -1
5.6895943 10.094466 0.52755779 2 -1
5.7716756 10.083042 0.51463407 2 -1
5.8777146 10.093889 0.53625858 2 -1
5.9475412 10.105663 0.52753747 2 -1
6.0644121 10.074745 0.52482378 2 -1
6.156847 10.083118 0.53706759 2 -1
6.245842 10.098465 0.53863925 2 -1
6.3392229 10.097583 0.53444403 2 -1
6.4294443 10.086829 0.53134817 2 -1
6.5437069 10.083728 0.5637086 2 -1
6.6286521 10.08029 0.52562588 2 -1
6.7504387 10.08391 0.53850901 2 -1
6.8333945 10.079014 0.53236043 2 -1
6.9533958 10.070572 0.54189736 2 -1
7.0563941 10.075303 0.51887512 2 -1
7.1565757 10.028019 0.53530383 2 -1
7.099596 9.8436623 0.53978032 2 -1
5.1693959 7.1352701 0.49372542 3 -1
5.182425 7.1468019 0.48042426 3 -1
5.2021093 7.150764 0.46927977 3 -1
5.1790447 7.157763 0.48603228 3 -1
5.1984596 7.193399 0.47866821 3 -1
5.1877527 7.1874523 0.49189878 3 -1
5.1809769 7.2083697 0.47166768 3 -1
5.1838675 7.2074356 0.48805484 3 -1
5.1893373 7.2195582 0.48363331 3 -1
5.1574802 7.2447124 0.47422072 3 -1
5.1843543 7.2556057 0.48151883 3 -1
5.1490898 7.2518845 0.49704191 3 -1
5.1610522 7.2950406 0.49545902 3 -1
5.1640186 7.3020244 0.48147172 3 -1
5.1659374 7.2960472 0.48769647 3 -1
5.1522284 7.3081155 0.4931232 3 -1
5.148581 7.3495684 0.48882386 3 -1
5.1652155 7.3561459 0.50124055 3 -1
5.1250496 7.3738713 0.48596835 3 -1
5.1244678 7.4017477 0.50728983 3 -1
5.1119642 7.4357839 0.50542021 3 -1
5.1084838 7.4799442 0.48529947 3 -1
5.0826273 7.4930205 0.48851815 3 -1
5.0334344 7.5469742 0.4940269 3 -1
5.0265961 7.6261306 0.49722812 3 -1
2.4559953 10.162771 0.66081566 2 -1
2.6296346 10.149659 0.67342699 2 -1
2.8002706 10.153084 0.64488292 2 -1
2.9619346 10.131235 0.64153826 2 -1
3.1206367 10.127911 0.63912022 2 -1
3.2922182 10.152325 0.62315834 2 -1
3.4097793 10.12714 0.62541372 2 -1
3.5537088 10.148573 0.63164675 2 -1
3.6901479 10.137824 0.61858702 2 -1
3.8142614 10.114511 0.62509191 2 -1
3.9482388 10.129066 0.60359532 2 -1
4.0503254 10.136183 0.63281769 2 -1
4.1573792 10.118738 0.60636657 2 -1
4.2797637 10.124163 0.60718477 2 -1
4.3682976 10.129478 0.61038232 2 -1
4.4607396 10.131306 0.59839576 2 -1
4.5800982 10.113757 0.61539477 2 -1
4.6618538 10.107748 0.59349686 2 -1
4.7639194 10.115757 0.59942645 2 -1
4.8729768 10.111397 0.6009596 2 -1
4.9662714 10.116913 0.60293961 2 -1
5.0508909 10.101268 0.61558342 2 -1
5.1463928 10.117641 0.59759915 2 -1
5.2288337 10.110413 0.61288673 2 -1
5.3332825 10.100867 0.59257579 2 -1
5.4244757 10.103168 0.59023029 2 -1
5.5224609 10.102077 0.60399455 2 -1
5.5956745 10.109949 0.58697706 2 -1
5.7096181 10.094378 0.60390693 2 -1
5.7606149 10.091365 0.59432513 2 -1
5.855536 10.087867 0.59525323 2 -1
5.9654541 10.099107 0.59894425 2 -1
6.0672846 10.095312 0.58493346 2 -1
6.156579 10.088473 0.5813235 2 -1
6.2491398 10.089564 0.58931279 2 -1
6.3493671 10.086733 0.59113652 2 -1
6.4348145 10.092944 0.6028477 2 -1
6.5241227 10.107191 0.59844267 2 -1
6.6480446 10.047684 0.60767478 2 -1
6.7498093 10.079114 0.60523647 2 -1
6.8325734 10.077314 0.60703588 2 -1
6.9467902 10.080647 0.62392509 2 -1
7.0470653 10.083297 0.62432486 2 -1
7.1671114 10.031466 0.58929735 2 -1
7.1242943 9.8257523 0.60445285 2 -1
5.1846313 7.1211324 0.51049113 3 -1
5.1926594 7.1439233 0.48519117 3 -1
5.1886387 7.1420751 0.5058881 3 -1
5.1978674 7.1448011 0.498925 3 -1
5.1735435 7.1913986 0.48893464 3 -1
5.1882143 7.178072 0.49008936 3 -1
5.1740394 7.1766987 0.50656265 3 -1
5.1756935 7.2124038 0.50034094 3 -1
5.1894097 7.2288103 0.49095848 3 -1
5.183599 7.2272363 0.50472641 3 -1
5.1626334 7.2492857 0.47472814 3 -1
5.1718941 7.2687793 0.50005597 3 -1
5.1545048 7.2879457 0.49142903 3 -1
5.1755061 7.2893705 0.48831576 3 -1
5.1583705 7.2964668 0.48586434 3 -1
5.1619325 7.3270969 0.49688616 3 -1
5.1571317 7.3281827 0.49293905 3 -1
5.1401734 7.3538785 0.50257397 3 -1
5.1342177 7.3751144 0.51019025 3 -1
5.1210051 7.4062519 0.50706905 3 -1
5.1157894 7.413691 0.5127098 3 -1
5.1016049 7.4452024 0.50218666 3 -1
5.0832253 7.4798832 0.52167624 3 -1
5.0471263 7.5407219 0.50495875 3 -1
4.9962926 7.6283388 0.52533519 3 -1
2.4540448 10.173882 0.74789429 2 -1
2.6393516 10.152281 0.73622358 2 -1
2.8253763 10.154331 0.73138416 2 -1
2.9801035 10.147337 0.72061872 2 -1
3.1234336 10.164262 0.72783887 2 -1
3.2665131 10.142572 0.73005623 2 -1
3.4266305 10.130038 0.69888961 2 -1
3.5639544 10.129279 0.71753049 2 -1
3.6770902 10.137669 0.70771641 2 -1
3.8199883 10.134542 0.69748902 2 -1
3.901494 10.113062 0.70330739 2 -1
4.0433922 10.126101 0.69237888 2 -1
4.1449566 10.136929 0.69112575 2 -1
4.2692499 10.11795 0.65645492 2 -1
4.3544998 10.129043 0.66672802 2 -1
4.4774475 10.126139 0.68317956 2 -1
4.5823812 10.132775 0.68169761 2 -1
4.677032 10.142673 0.66843146 2 -1
4.7825742 10.100765 0.67603123 2 -1
4.8700304 10.118687 0.66124839 2 -1
4.9463296 10.097668 0.66913462 2 -1
5.0526967 10.106748 0.65096962 2 -1
5.1567054 10.113297 0.6652028 2 -1
5.2333565 10.093922 0.66957229 2 -1
5.3333316 10.091648 0.65115619 2 -1
5.396646 10.108789 0.658777 2 -1
5.5086746 10.093019 0.67019451 2 -1
5.592566 10.108619 0.65289462 2 -1
5.677546 10.09893 0.66434765 2 -1
5.7914448 10.092737 0.67209244 2 -1
5.8817472 10.099653 0.66421694 2 -1
5.9745088 10.080584 0.6533764 2 -1
6.0433202 10.077268 0.66353244 2 -1
6.1592832 10.08227 0.65720725 2 -1
6.2631025 10.073132 0.66774917 2 -1
6.3183351 10.089293 0.65835261 2 -1
6.4334173 10.091223 0.65740198 2 -1
6.519011 10.058838 0.65792805 2 -1
6.6355605 10.070031 0.68358755 2 -1
6.7441292 10.072301 0.67161673 2 -1
6.8248386 10.059181 0.66578829 2 -1
6.9614596 10.06691 0.68734634 2 -1
7.0419412 10.075768 0.67376065 2 -1
7.166862 10.030104 0.67671132 2 -1
7.1057158 9.8651428 0.67392349 2 -1
5.1830597 7.1131716 0.51380426 3 -1
5.2067671 7.1617618 0.49040791 3 -1
5.1952801 7.1617241 0.50128084 3 -1
5.2016134 7.1631498 0.50313747 3 -1
5.1902022 7.1784611 0.48599795 3 -1
5.1793995 7.1870666 0.49586448 3 -1
5.1775932 7.2201729 0.4887512 3 -1
5.1765924 7.2119937 0.47972268 3 -1
5.1921511 7.2235823 0.48709333 3 -1
5.1653843 7.2236528 0.48779804 3 -1
5.1761484 7.2502522 0.49454769 3 -1
5.172658 7.2722492 0.5225209 3 -1
5.1598792 7.2700853 0.5180251 3 -1
5.1583724 7.2948809 0.50790107 3 -1
5.1539578 7.3150206 0.51793563 3 -1
5.1559472 7.3161721 0.50589567 3 -1
5.1408277 7.321949 0.5044083 3 -1
5.1351967 7.3634925 0.51826471 3 -1
5.1437116 7.3834391 0.52399838 3 -1
5.1199193 7.4119086 0.51346326 3 -1
5.1028004 7.4299173 0.51725227 3 -1
5.103879 7.4687405 0.51076269 3 -1
5.0846705 7.5083528 0.52998012 3 -1
5.0351629 7.5416427 0.50836301 3 -1
5.0053072 7.6022148 0.52661753 3 -1
2.4733925 10.150461 0.84189904 2 -1
2.6364365 10.153365 0.83147115 2 -1
2.8056748 10.136665 0.81289756 2 -1
2.9611845 10.145111 0.82452732 2 -1
3.1224487 10.137915 0.80265296 2 -1
3.2747698 10.141943 0.78329873 2 -1
3.4134245 10.135236 0.78770739 2 -1
3.5484822 10.130575 0.77253371 2 -1
3.6762915 10.128107 0.80047745 2 -1
3.807899 10.129141 0.78154683 2 -1
3.9408436 10.122641 0.75872982 2 -1
4.0455523 10.126486 0.75513268 2 -1
4.1664433 10.128305 0.73820925 2 -1
4.2523408 10.128225 0.741853 2 -1
4.3725214 10.112562 0.73742592 2 -1
4.4582686 10.11867 0.7519567 2 -1
4.5739212 10.11493 0.73884988 2 -1
4.6794863 10.120783 0.73994243 2 -1
4.7638564 10.103483 0.74877608 2 -1
4.8550282 10.114941 0.72086036 2 -1
4.9640417 10.097605 0.73152703 2 -1
5.0642114 10.100993 0.73164654 2 -1
5.1356363 10.116369 0.71713859 2 -1
5.2379785 10.090136 0.72197402 2 -1
5.3250647 10.101015 0.72354233 2 -1
5.4157677 10.083647 0.70598471 2 -1
5.5176225 10.07132 0.72790933 2 -1
5.6153288 10.108939 0.72014123 2 -1
5.6934557 10.114944 0.7039333 2 -1
5.7691355 10.069006 0.72507131 2 -1
5.8633103 10.091612 0.72952163 2 -1
5.9706297 10.094015 0.72831696 2 -1
6.0610065 10.085888 0.72222674 2 -1
6.1412587 10.09605 0.71851593 2 -1
6.2530627 10.10014 0.72882754 2 -1
6.348352 10.077879 0.72299194 2 -1
6.4109755 10.071583 0.72714949 2 -1
6.5391779 10.089314 0.72731042 2 -1
6.6355762 10.079196 0.73343736 2 -1
6.737299 10.085662 0.72462523 2 -1
