# .PCD v0.7 - Point Cloud Data file format
VERSION 0.7
FIELDS x y z label
SIZE 4 4 4 4
TYPE F F F U
COUNT 1 1 1 1
WIDTH 1310
HEIGHT 1
VIEWPOINT 4.00002 2.00002 0.0997759 1 0 0 0
POINTS 1310
DATA ascii
4.033752 1.0320046 0.11129469 1 -1
4.013865 1.0295868 0.096478403 1 -1
3.9840243 1.0331292 0.12240636 1 -1
3.9934344 1.0106192 0.1064975 1 -1
3.9545374 1.0293469 0.10196471 1 -1
3.9194176 1.0265857 0.10905358 1 -1
3.8921771 1.0389142 0.11020608 1 -1
3.8672156 1.0340106 0.12779841 1 -1
3.8405898 1.0138149 0.10651606 1 -1
3.827769 1.0391825 0.10244685 1 -1
3.7989507 1.0449357 0.10046268 1 -1
3.7654176 1.034338 0.11631152 1 -1
3.7537942 1.0518448 0.12187234 1 -1
3.7322693 1.0752337 0.10236982 1 -1
3.6746511 1.0566219 0.10759884 1 -1
3.6579721 1.0750818 0.11126158 1 -1
3.6486957 1.0916796 0.10555825 1 -1
3.6086483 1.0911875 0.12984321 1 -1
3.5907037 1.0842674 0.098145097 1 -1
3.5586061 1.1005135 0.1068936 1 -1
3.5385263 1.1095369 0.1243633 1 -1
3.521198 1.1400123 0.10760906 1 -1
3.5101688 1.1406271 0.1066284 1 -1
3.4670463 1.1615343 0.10621092 1 -1
3.4328318 1.1821351 0.10492608 1 -1
3.4485135 1.1870029 0.11476707 1 -1
3.4231868 1.2037597 0.10904649 1 -1
3.399528 1.186776 0.10594589 1 -1
3.3954992 1.2471869 0.11009714 1 -1
3.3580792 1.2497096 0.10450703 1 -1
3.3460367 1.2574756 0.10014671 1 -1
3.3140225 1.2907448 0.11252597 1 -1
3.3112688 1.2956684 0.12300208 1 -1
3.2919016 1.3154515 0.10586384 1 -1
3.2852726 1.3504039 0.11020982 1 -1
3.2593246 1.3521748 0.099410981 1 -1
3.2514992 1.3540146 0.098909438 1 -1
3.2272248 1.4052961 0.10376644 1 -1
3.2147698 1.4266412 0.075969934 1 -1
3.2034645 1.4533758 0.11097348 1 -1
3.1830311 1.4781072 0.096327424 1 -1
3.1801867 1.4832008 0.096007079 1 -1
3.1584921 1.5412717 0.09912926 1 -1
3.1694164 1.5374223 0.11429128 1 -1
3.1418018 1.5623561 0.10160986 1 -1
3.1361876 1.5749226 0.11551449 1 -1
3.1510355 1.5927918 0.12101191 1 -1
3.1188498 1.6521966 0.10741863 1 -1
3.1428883 1.645524 0.1101208 1 -1
3.1478827 1.7102454 0.11896199 1 -1
3.1426105 1.7199434 0.11954311 1 -1
3.1638114 1.7320783 0.13561347 3 -1
3.1688771 1.7811601 0.1433824 3 -1
3.1647224 1.8079423 0.12968552 3 -1
3.1607585 1.8209854 0.14752963 3 -1
3.1795497 1.8474289 0.15191469 3 -1
3.1888599 1.8592869 0.1426374 3 -1
3.1840115 1.8616743 0.12834033 3 -1
4.359623 1.0895158 0.10742746 1 -1
4.3310175 1.0769253 0.11407822 1 -1
4.3292542 1.0828073 0.11140981 1 -1
4.2808466 1.0445104 0.10919163 1 -1
4.2490191 1.0526822 0.12000525 1 -1
4.2540593 1.0144517 0.094345033 1 -1
4.2133784 1.033764 0.12512603 1 -1
4.1953049 1.017138 0.089683086 1 -1
4.1656084 1.0186524 0.12654194 1 -1
4.119287 0.99523199 0.10760687 1 -1
4.1036968 0.98360908 0.11003321 1 -1
4.0730491 0.98413396 0.11304748 1 -1
4.0376153 0.96841836 0.10265827 1 -1
4.0070591 0.9924866 0.10870421 1 -1
4.0073581 0.9748646 0.115181 1 -1
3.978457 0.98458982 0.10729527 1 -1
3.9587748 0.97163594 0.10831225 1 -1
3.9123552 0.9436357 0.10945272 1 -1
3.9075651 0.99514806 0.10028827 1 -1
3.8589542 1.0007505 0.095165551 1 -1
3.8291774 0.97670364 0.11109456 1 -1
3.8000033 0.98073637 0.10114864 1 -1
3.7647321 0.99923193 0.10520098 1 -1
3.7547193 0.99266851 0.097564161 1 -1
3.712775 1.0107901 0.10223249 1 -1
3.7014863 1.0004265 0.10612962 1 -1
3.6830602 1.0152979 0.12774572 1 -1
3.6288881 1.0316427 0.089941621 1 -1
3.6198537 1.0307666 0.093831658 1 -1
3.5763326 1.0334873 0.12929878 1 -1
3.5585999 1.0584102 0.11804888 1 -1
3.5479243 1.0705271 0.11862031 1 -1
3.5334201 1.0739477 0.11581871 1 -1
3.4982917 1.0825779 0.12398326 1 -1
3.4830239 1.0879567 0.1153881 1 -1
3.4479065 1.1071458 0.11568774 1 -1
3.427017 1.1297998 0.11396417 1 -1
3.4247582 1.1237693 0.11613029 1 -1
3.3721693 1.1658931 0.097761124 1 -1
3.35571 1.1622694 0.11839262 1 -1
3.3611097 1.1840044 0.095891416 1 -1
3.3240747 1.2112467 0.1170651 1 -1
3.3294611 1.2389586 0.10418297 1 -1
3.2721293 1.2405797 0.12203133 1 -1
3.2618411 1.2524822 0.12678665 1 -1
3.2536011 1.2971594 0.11744809 1 -1
3.2306983 1.2874861 0.10001275 1 -1
3.2016268 1.3339529 0.094362855 1 -1
3.1948953 1.3542736 0.12235019 1 -1
3.1992373 1.3743749 0.10411055 1 -1
3.1662884 1.3974925 0.1027849 1 -1
3.1763911 1.4475751 0.1083104 1 -1
3.1376994 1.4518988 0.093174934 1 -1
3.1326985 1.4559009 0.11755559 1 -1
3.1140625 1.5063605 0.10276416 1 -1
3.1023576 1.518519 0.099836677 1 -1
3.1025641 1.5507178 0.097095817 1 -1
3.0886703 1.5466504 0.11240953 1 -1
3.1044602 1.6003261 0.12816095 3 -1
3.1168275 1.6484559 0.12082636 1 -1
3.1281433 1.6742495 0.14668217 3 -1
3.122803 1.6953044 0.13201234 3 -1
3.1302228 1.7290745 0.15395692 3 -1
3.1631398 1.7528906 0.1476793 3 -1
3.1548278 1.785571 0.13253951 3 -1
3.161504 1.7839904 0.16115582 3 -1
3.1783936 1.8282597 0.16557485 3 -1
3.1822619 1.8540845 0.18082115 3 -1
3.1753085 1.8611133 0.17269427 3 -1
3.1767004 1.8680439 0.16619414 3 -1
4.3794141 1.0264817 0.11808774 1 -1
4.3704414 1.0089629 0.11564937 1 -1
4.326057 1.0027461 0.1253427 1 -1
4.3111367 0.99311209 0.099077046 1 -1
4.2783694 0.99686182 0.11135104 1 -1
4.2413964 0.97616911 0.11602184 1 -1
4.2146339 0.97175539 0.11191598 1 -1
4.187603 0.96261501 0.096998036 1 -1
4.1733813 0.96738029 0.10657252 1 -1
4.1369061 0.96467364 0.11030608 1 -1
4.1324344 0.94852197 0.10081232 1 -1
4.0703082 0.93894839 0.094688624 1 -1
4.0591016 0.94571114 0.10674968 1 -1
4.0297866 0.94019973 0.11068098 1 -1
3.9999809 0.92527688 0.091386884 1 -1
3.9713407 0.92338085 0.11539757 1 -1
3.9545252 0.91946638 0.12135512 1 -1
3.9043961 0.92229223 0.13174292 1 -1
3.8878942 0.93200922 0.11810988 1 -1
3.8463562 0.93138158 0.088856876 1 -1
3.8278587 0.91700435 0.11882219 1 -1
3.7975032 0.9341749 0.12745041 1 -1
3.7762265 0.93409741 0.11140543 1 -1
3.727978 0.92598796 0.1305308 1 -1
3.6989913 0.94768608 0.11644603 1 -1
3.6716998 0.93298495 0.11070947 1 -1
3.6604998 0.97949076 0.1118433 1 -1
3.6422091 0.95451808 0.12255996 1 -1
3.6326609 0.97102726 0.1175271 1 -1
3.5786138 0.99910855 0.095920563 1 -1
3.5595784 0.98551846 0.10921884 1 -1
3.515059 1.0166926 0.12672037 1 -1
3.5004575 1.0195591 0.10419504 1 -1
3.4825871 1.0198637 0.12896687 1 -1
3.445683 1.0515592 0.11157203 1 -1
3.4388585 1.0695951 0.12249815 1 -1
3.3958714 1.0728574 0.10250948 1 -1
3.3553092 1.0812703 0.11928692 1 -1
3.358829 1.1158268 0.10794359 1 -1
3.3437812 1.1225865 0.090738565 1 -1
3.3273535 1.1454664 0.09557128 1 -1
3.2947907 1.1639214 0.10089815 1 -1
3.2656498 1.1973689 0.10507643 1 -1
3.2367618 1.2161758 0.10388049 1 -1
3.222542 1.2423155 0.11251807 1 -1
3.2240977 1.2482322 0.10478291 1 -1
3.1831326 1.2842114 0.10537697 1 -1
3.1739664 1.2965109 0.12325266 1 -1
3.1646323 1.3311937 0.095449895 1 -1
3.1357882 1.3568776 0.099411935 1 -1
3.1300614 1.3559694 0.11351421 1 -1
3.1001246 1.3966267 0.10589264 1 -1
3.1017241 1.4333086 0.11984554 1 -1
3.0960023 1.4649451 0.12050599 1 -1
3.0640936 1.4717501 0.10006085 1 -1
3.0609784 1.5109026 0.11326787 1 -1
3.0627584 1.5159929 0.1112332 1 -1
3.0646875 1.566046 0.12794703 3 -1
3.0745225 1.5997976 0.11647367 1 -1
3.0997214 1.6276453 0.14204705 3 -1
3.1102836 1.6613203 0.17842954 3 -1
3.1440449 1.6860256 0.16334948 3 -1
3.1425638 1.7147775 0.16220063 3 -1
3.1568561 1.7639214 0.17844072 3 -1
3.1550446 1.7629082 0.17360237 3 -1
3.1662006 1.7728227 0.1855022 3 -1
3.165221 1.8387146 0.19224364 3 -1
3.1898887 1.8355752 0.17086536 3 -1
3.1947358 1.8794061 0.18617308 3 -1
3.1924586 1.8809404 0.19093883 3 -1
4.4008245 0.98980689 0.11913761 1 -1
4.3959484 0.947878 0.11117139 1 -1
4.3737187 0.96771073 0.10792863 1 -1
4.3451166 0.94272983 0.11428425 1 -1
4.3023481 0.92677128 0.11632591 1 -1
4.2661581 0.90771329 0.10752487 1 -1
4.2298136 0.90689433 0.11222927 1 -1
4.2124729 0.90362656 0.11886975 1 -1
4.1818852 0.89638543 0.12132178 1 -1
4.1445165 0.88569093 0.11837119 1 -1
4.1373987 0.88614762 0.11571917 1 -1
4.1037102 0.8707515 0.11638296 1 -1
4.0651107 0.88074243 0.098611116 1 -1
4.0399513 0.86246073 0.10466343 1 -1
4.0104203 0.87418878 0.11649323 1 -1
3.9711308 0.84500158 0.098754793 1 -1
3.9460199 0.86734688 0.10851645 1 -1
3.914037 0.85439003 0.10843965 1 -1
3.8916025 0.86251402 0.1128187 1 -1
3.8681056 0.86341739 0.109934 1 -1
3.838366 0.84956396 0.11459614 1 -1
3.8160844 0.86537576 0.11433816 1 -1
3.7453244 0.88464999 0.10695636 1 -1
3.7174201 0.88004327 0.12412915 1 -1
3.7137032 0.88852715 0.10990709 1 -1
3.6803105 0.89668036 0.10161349 1 -1
3.6546431 0.90531898 0.11746168 1 -1
3.6047494 0.91946733 0.1053794 1 -1
3.5816023 0.91365099 0.11180368 1 -1
3.5495801 0.92178929 0.09009859 1 -1
3.5418267 0.94176519 0.1146346 1 -1
3.5099051 0.9489727 0.12481245 1 -1
3.4617393 0.96148229 0.10514186 1 -1
3.425138 0.99924445 0.10402808 1 -1
3.4128232 1.0058591 0.12913373 1 -1
3.3786142 1.009619 0.10639682 1 -1
3.3649626 1.0367821 0.088881642 1 -1
3.3328168 1.0389707 0.11330333 1 -1
3.2906573 1.0520246 0.10791576 1 -1
3.2891221 1.0780611 0.12070099 1 -1
3.2721553 1.1108 0.12263253 1 -1
3.2642064 1.1250441 0.11394534 1 -1
3.2188165 1.1417935 0.1088239 1 -1
3.1968648 1.1702371 0.10348383 1 -1
3.1503823 1.1942067 0.11479226 1 -1
3.1487339 1.2130768 0.11044067 1 -1
3.1356759 1.2277403 0.10352099 1 -1
3.1075826 1.2563379 0.10991904 1 -1
3.1067863 1.2941024 0.13892823 1 -1
3.1021154 1.3084955 0.10541272 1 -1
3.0745213 1.3273249 0.10519005 1 -1
3.0613739 1.365857 0.10497838 1 -1
3.0385725 1.3927939 0.12657598 1 -1
3.0209217 1.433145 0.1124846 1 -1
3.005789 1.4551852 0.098662525 1 -1
3.0379262 1.4786713 0.11936206 1 -1
3.0512812 1.5308671 0.14976472 3 -1
3.0750642 1.5773442 0.17628938 3 -1
3.1099226 1.6056968 0.15380532 3 -1
3.1154203 1.6264552 0.14575577 3 -1
3.1326163 1.6598723 0.18167701 3 -1
3.1477458 1.6958771 0.18045214 3 -1
3.1515346 1.7077594 0.18743497 3 -1
3.139462 1.7451557 0.16937578 3 -1
3.1422038 1.7692499 0.18690619 3 -1
3.1757791 1.7892519 0.18695021 3 -1
3.1720815 1.8179326 0.19016796 3 -1
3.1655624 1.8459163 0.20129669 3 -1
3.1866908 1.8572515 0.19653627 3 -1
3.1704643 1.8665184 0.19520885 3 -1
4.4205246 0.93201196 0.12448087 1 -1
4.430829 0.90754926 0.10123804 1 -1
4.3961439 0.88888156 0.099392444 1 -1
4.3487148 0.86814642 0.10513917 1 -1
4.3298373 0.87087762 0.11131793 1 -1
4.299994 0.86842155 0.1204814 1 -1
4.2607031 0.84129632 0.093696505 1 -1
4.2498708 0.82928181 0.11694083 1 -1
4.2019296 0.82462645 0.11130634 1 -1
4.1842494 0.80361903 0.12041986 1 -1
4.13662 0.80882609 0.11878502 1 -1
4.1075592 0.82300639 0.096780211 1 -1
4.0761218 0.80725765 0.10409915 1 -1
4.053061 0.81126297 0.098072022 1 -1
4.0146551 0.79113221 0.12567118 1 -1
3.9762282 0.80568278 0.10950793 1 -1
3.9486871 0.76004815 0.12649065 1 -1
3.8954265 0.79982746 0.11153203 1 -1
3.8770535 0.79218221 0.1104137 1 -1
3.8454437 0.76838052 0.10965255 1 -1
3.8284657 0.7951715 0.12416896 1 -1
3.7714615 0.78484058 0.11809897 1 -1
3.7407658 0.80852389 0.089033455 1 -1
3.7186067 0.80694818 0.08196938 1 -1
3.6804473 0.80880678 0.12564653 1 -1
3.6685784 0.82083106 0.098370671 1 -1
3.63099 0.82411218 0.10347116 1 -1
3.5822577 0.83942747 0.088258028 1 -1
3.5579481 0.85370409 0.10956019 1 -1
3.5283642 0.86103046 0.11484665 1 -1
3.4827223 0.86820555 0.11001435 1 -1
3.4607058 0.87496018 0.11319128 1 -1
3.4624662 0.90724027 0.11332113 1 -1
3.4063761 0.91065526 0.11698472 1 -1
3.3939524 0.93984556 0.11283216 1 -1
3.3509364 0.94552195 0.10263848 1 -1
3.3339257 0.96724308 0.1136784 1 -1
3.2766144 0.98872685 0.10339043 1 -1
3.2687275 1.0143719 0.10343176 1 -1
3.2606492 1.0175943 0.11302808 1 -1
3.2420278 1.0446551 0.10012373 1 -1
3.1895852 1.0732398 0.10697609 1 -1
3.1587996 1.0893519 0.13189083 1 -1
3.1521049 1.1028445 0.11143872 1 -1
3.1462603 1.1460013 0.11862198 1 -1
3.1034286 1.1658671 0.11089092 1 -1
3.0727077 1.1919556 0.12266797 1 -1
3.074959 1.2268078 0.099033237 1 -1
3.0302191 1.2504053 0.13018927 1 -1
3.0333543 1.2849596 0.098129213 1 -1
3.0164559 1.2939494 0.10268673 1 -1
2.9895864 1.3275223 0.11178845 1 -1
2.9754167 1.3546737 0.10989688 1 -1
2.9774077 1.3959122 0.12235016 1 -1
3.0078533 1.4456155 0.12989423 3 -1
3.03181 1.4828842 0.16143206 3 -1
3.0669751 1.5191045 0.16555175 3 -1
3.101131 1.5815139 0.16940039 3 -1
3.0956638 1.5997746 0.18092725 3 -1
3.1128764 1.6363416 0.18315387 3 -1
3.1093628 1.6590745 0.19445702 3 -1
3.1394644 1.6922355 0.20795977 3 -1
3.1433401 1.7160984 0.19369879 3 -1
3.1366224 1.7333125 0.20672947 3 -1
3.1581521 1.7697382 0.20277405 3 -1
3.1961253 1.7831657 0.22956875 3 -1
3.1692398 1.8276111 0.21274909 3 -1
3.1836977 1.8429986 0.22521347 3 -1
3.2022521 1.8524802 0.22812006 3 -1
3.1717284 1.8833079 0.20162481 3 -1
4.4938083 0.85933101 0.11911577 1 -1
4.4510641 0.83149683 0.11782771 1 -1
4.4022422 0.82163084 0.1090292 1 -1
4.4132895 0.80579758 0.10100836 1 -1
4.3546238 0.79693425 0.13152826 1 -1
4.3204021 0.77164125 0.1054236 1 -1
4.280282 0.74976313 0.11526626 1 -1
4.25948 0.75530219 0.10868049 1 -1
4.2052608 0.7549963 0.10685721 1 -1
4.1838503 0.75486314 0.10388699 1 -1
4.1485043 0.72499192 0.10927862 1 -1
4.1087193 0.70925319 0.12270322 1 -1
4.0713525 0.71973479 0.097739816 1 -1
4.051764 0.72764134 0.11835003 1 -1
4.0199447 0.70867884 0.12386465 1 -1
3.9721305 0.72253251 0.12190598 1 -1
3.9523473 0.70842719 0.098517984 1 -1
3.9154949 0.7198981 0.11303407 1 -1
3.8854725 0.70113826 0.12226164 1 -1
3.8245399 0.71967566 0.11428612 1 -1
3.8053868 0.71397114 0.12096101 1 -1
3.7780406 0.73346031 0.096542358 1 -1
3.7436163 0.72064376 0.12732917 1 -1
3.6915514 0.7391566 0.11224535 1 -1
3.6582193 0.74449587 0.1010032 1 -1
3.6329699 0.72968912 0.10879967 1 -1
3.5870519 0.76749396 0.11161184 1 -1
3.5800486 0.77058959 0.12690684 1 -1
3.5312095 0.78786421 0.093353689 1 -1
3.481957 0.80500364 0.10506934 1 -1
3.438 0.79832375 0.11876005 1 -1
3.4365709 0.81498802 0.11513984 1 -1
3.3839374 0.80930078 0.12672693 1 -1
3.3571227 0.86010802 0.10240802 1 -1
3.3418541 0.86236596 0.10547695 1 -1
3.3156652 0.89567697 0.1225417 1 -1
3.2865319 0.89126503 0.10564134 1 -1
3.2692664 0.91167724 0.10525104 1 -1
3.2288864 0.92658544 0.12933308 1 -1
3.1980355 0.96783745 0.12589023 1 -1
3.1452439 0.9982233 0.11319917 1 -1
3.1456439 1.0058639 0.10782376 1 -1
3.1269906 1.0426404 0.11728927 1 -1
3.0984364 1.0526987 0.11080071 1 -1
3.0698352 1.08551 0.11766323 1 -1
3.0337105 1.1171299 0.11555338 1 -1
3.0046523 1.1239917 0.10193601 1 -1
2.9868031 1.1816101 0.099300355 1 -1
2.9850168 1.191427 0.10877565 1 -1
2.9526749 1.2148283 0.10447866 1 -1
2.9474828 1.2463179 0.088971138 1 -1
2.9243412 1.2947385 0.12575418 1 -1
2.9122114 1.3071569 0.10250926 1 -1
2.9544792 1.3797837 0.14256757 3 -1
2.997076 1.4302877 0.15231481 3 -1
3.0372667 1.4979041 0.17443198 3 -1
3.0509429 1.5291381 0.17395723 3 -1
3.0816791 1.5628396 0.19827458 3 -1
3.1109409 1.5953561 0.202777 3 -1
3.1039941 1.642247 0.21807706 3 -1
3.1459985 1.653863 0.21914655 3 -1
3.1488287 1.6917573 0.20327255 3 -1
3.1402206 1.7118627 0.22398326 3 -1
3.1498528 1.731352 0.22171022 3 -1
3.166981 1.7540337 0.21775723 3 -1
3.1619625 1.7923272 0.25235003 3 -1
3.1812713 1.8022715 0.23465005 3 -1
3.1659949 1.8345325 0.24702576 3 -1
3.1890769 1.8718835 0.25462782 3 -1
3.1836433 1.8787389 0.24644828 3 -1
4.5321584 0.78504455 0.10812099 1 -1
4.5173044 0.75042665 0.10224992 1 -1
4.4455695 0.73781466 0.10140736 1 -1
4.4283495 0.7171855 0.12506855 1 -1
4.3931999 0.70514989 0.11000037 1 -1
4.3663025 0.67549825 0.10773671 1 -1
4.3342242 0.68639445 0.11505547 1 -1
4.2860088 0.67444658 0.095746189 1 -1
4.2481813 0.66092467 0.12427175 1 -1
4.2048082 0.65646756 0.11369032 1 -1
4.1708298 0.65248168 0.12037811 1 -1
4.1274042 0.6407007 0.10989323 1 -1
4.0929747 0.61631894 0.10309362 1 -1
4.0782156 0.60616934 0.12132463 1 -1
4.0239825 0.62360299 0.11419073 1 -1
3.9878044 0.6109997 0.11395782 1 -1
3.9429088 0.63047361 0.1076549 1 -1
3.9225652 0.62019181 0.11312795 1 -1
3.8623552 0.6386373 0.10060757 1 -1
3.8143454 0.62388396 0.10983106 1 -1
3.7977529 0.63339674 0.105088 1 -1
3.7637875 0.63918781 0.1027825 1 -1
3.7286425 0.63992035 0.12315673 1 -1
3.6842449 0.64318454 0.11847433 1 -1
3.6540167 0.63948429 0.10692421 1 -1
3.6072686 0.67333126 0.12264222 1 -1
3.5666263 0.66525352 0.12144852 1 -1
3.5302019 0.69085169 0.1351805 1 -1
3.4869282 0.70013082 0.12402353 1 -1
3.4780152 0.69790316 0.1094344 1 -1
3.442703 0.73586011 0.10954925 1 -1
3.3978605 0.74089062 0.10765214 1 -1
3.3725212 0.73798847 0.11692134 1 -1
3.3243258 0.76588047 0.1244047 1 -1
3.2869771 0.79594183 0.12153316 1 -1
3.2667661 0.80527639 0.12013993 1 -1
3.2333975 0.81039703 0.12756985 1 -1
3.2009423 0.8546133 0.11419111 1 -1
3.1884098 0.88299668 0.11546841 1 -1
3.1358771 0.9182688 0.10932472 1 -1
3.1090765 0.92582059 0.1162104 1 -1
3.0867958 0.93376994 0.10838446 1 -1
3.0712152 0.97694778 0.11341646 1 -1
3.0239639 1.0022883 0.10254727 1 -1
2.9974627 1.0141492 0.11442497 1 -1
2.9679878 1.0565928 0.13411304 1 -1
2.9409692 1.0749846 0.1048421 1 -1
2.9295106 1.1060643 0.10780609 1 -1
2.9082141 1.1323128 0.095656276 1 -1
2.9008451 1.1768768 0.11128283 1 -1
2.8648405 1.2072976 0.10626587 1 -1
2.8520398 1.2298591 0.11174124 1 -1
2.8828721 1.3054279 0.13279876 1 -1
2.949223 1.3869172 0.17857197 3 -1
2.984839 1.4273512 0.17388079 3 -1
3.0320649 1.4888406 0.19676268 3 -1
3.0630035 1.5301335 0.19950554 3 -1
3.0884609 1.5772567 0.21143565 3 -1
3.1014242 1.5905104 0.23056376 3 -1
3.096072 1.622385 0.23197791 3 -1
3.1178732 1.6539679 0.23450327 3 -1
3.1233134 1.6853213 0.24767894 3 -1
3.1606405 1.7170435 0.24194896 3 -1
3.1505136 1.7343874 0.22665158 3 -1
3.147491 1.7602515 0.24753389 3 -1
3.1818848 1.7850014 0.24902707 3 -1
3.1662076 1.8146381 0.24511465 3 -1
3.1758418 1.8416328 0.2850078 3 -1
3.1790609 1.8738962 0.27348539 3 -1
3.202209 1.8844091 0.25904685 3 -1
4.5972719 0.6920085 0.12340382 1 -1
4.556726 0.66392994 0.11889447 1 -1
4.5013285 0.65037978 0.1206132 1 -1
4.457612 0.61954415 0.12318213 1 -1
4.4305568 0.60637069 0.12281656 1 -1
4.3953276 0.59493876 0.11138901 1 -1
4.3451333 0.5908165 0.094632626 1 -1
4.3281908 0.56300175 0.10581076 1 -1
4.25913 0.55267334 0.10964 1 -1
4.2306318 0.53696442 0.11148752 1 -1
4.2048202 0.54552221 0.1052261 1 -1
4.1556921 0.53689468 0.12559667 1 -1
4.1099405 0.51698351 0.11221772 1 -1
4.0526595 0.49488235 0.096839756 1 -1
4.0178523 0.51501906 0.11715657 1 -1
3.9909735 0.50752366 0.11761853 1 -1
3.9534388 0.50591946 0.099854827 1 -1
3.9029207 0.51828349 0.12069669 1 -1
3.8662009 0.51670289 0.12182006 1 -1
3.8291757 0.5091536 0.10356858 1 -1
3.802731 0.49103987 0.11517486 1 -1
3.7579339 0.50335729 0.10468391 1 -1
3.7042477 0.53463876 0.11736053 1 -1
3.6555429 0.527946 0.11730549 1 -1
3.6305792 0.55075705 0.12441383 1 -1
3.5782623 0.5547812 0.12588397 1 -1
3.5660462 0.56121802 0.13068387 1 -1
3.5017276 0.56590629 0.10866266 1 -1
3.4578841 0.57734692 0.12913942 1 -1
3.432076 0.61338675 0.11443734 1 -1
3.388027 0.61423719 0.10199139 1 -1
3.3662305 0.64612269 0.12646678 1 -1
3.3119416 0.64967585 0.12974986 1 -1
3.2815409 0.66885567 0.12312758 1 -1
3.2371047 0.69348645 0.11621362 1 -1
3.1981933 0.70951009 0.11896741 1 -1
3.1876078 0.7502569 0.10980445 1 -1
3.140245 0.74032271 0.11931044 1 -1
3.0930667 0.77924502 0.12072676 1 -1
3.0739472 0.80777621 0.11017732 1 -1
3.042074 0.82932425 0.10732514 1 -1
3.0135984 0.88521314 0.11018381 1 -1
2.9926531 0.8862251 0.12398809 1 -1
2.9569681 0.91660523 0.10113622 1 -1
2.9230471 0.96628273 0.11476934 1 -1
2.8898411 0.97620726 0.11796212 1 -1
2.8730826 1.0309403 0.097674727 1 -1
2.8418534 1.0437561 0.11501011 1 -1
2.8296082 1.0815762 0.14214751 1 -1
2.8024416 1.1235311 0.10779932 1 -1
2.7879057 1.1587369 0.10795194 1 -1
2.7602072 1.1810682 0.12441383 1 -1
2.8871689 1.3093667 0.15917641 3 -1
2.9759135 1.4007182 0.17816219 3 -1
3.0022414 1.4420348 0.22099915 3 -1
3.0294399 1.4821982 0.20681334 3 -1
3.0607858 1.5162251 0.22708687 3 -1
3.0758049 1.563122 0.22028354 3 -1
3.1160867 1.5934696 0.24634376 3 -1
3.1189883 1.6276098 0.25775838 3 -1
3.1271474 1.6566193 0.25274533 3 -1
3.1546116 1.6979264 0.25658506 3 -1
3.1413858 1.7144673 0.26056933 3 -1
3.1555886 1.7544895 0.2611396 3 -1
3.1676984 1.7792975 0.25867909 3 -1
3.1674099 1.8075411 0.27803808 3 -1
3.1750436 1.817143 0.25125957 3 -1
3.1925581 1.8415991 0.27000374 3 -1
3.1648259 1.8575271 0.28539407 3 -1
3.202661 1.87693 0.27699587 3 -1
4.6491299 0.55797267 0.11020616 1 -1
4.5955677 0.54459095 0.10744692 1 -1
4.5456886 0.51135385 0.1162471 1 -1
4.5231447 0.49524391 0.10470247 1 -1
4.4742966 0.49206913 0.11969496 1 -1
4.4341311 0.47652411 0.12309703 1 -1
4.3896246 0.45556104 0.12413055 1 -1
4.3527279 0.45923722 0.10920098 1 -1
4.3147874 0.43598449 0.11767724 1 -1
4.2502627 0.41318274 0.11574596 1 -1
4.2329445 0.42052281 0.11786428 1 -1
4.1740074 0.4089905 0.10615444 1 -1
4.1219468 0.38892329 0.11225891 1 -1
4.099546 0.39264023 0.094474703 1 -1
4.0591521 0.37533903 0.13224342 1 -1
3.9866674 0.39025736 0.10046026 1 -1
3.9570704 0.38852608 0.11973941 1 -1
3.91028 0.38311672 0.10899305 1 -1
3.878207 0.40973067 0.11764687 1 -1
3.8236337 0.39992952 0.10717446 1 -1
3.770714 0.39428627 0.12957588 1 -1
3.7197938 0.3968786 0.10696277 1 -1
3.6819038 0.39435303 0.10800514 1 -1
3.6514409 0.42546701 0.108082 1 -1
3.5955405 0.43400097 0.11341885 1 -1
3.5573041 0.41510499 0.11101776 1 -1
3.5192459 0.44364703 0.10247892 1 -1
3.4716911 0.45622528 0.11559001 1 -1
3.4331999 0.47927034 0.1218091 1 -1
3.3801169 0.48830771 0.13526264 1 -1
3.3390007 0.48466706 0.088286042 1 -1
3.3101921 0.54144406 0.11382654 1 -1
3.234323 0.54935658 0.10416883 1 -1
3.2264781 0.56408429 0.12695876 1 -1
3.1783483 0.580019 0.11327791 1 -1
3.1425986 0.6105057 0.090368003 1 -1
3.1115265 0.62586176 0.12217104 1 -1
3.0832615 0.66868961 0.11600634 1 -1
3.032279 0.68263876 0.11673582 1 -1
2.991591 0.72495472 0.13019943 1 -1
2.9592938 0.75119686 0.12471583 1 -1
2.9215403 0.7838428 0.11090916 1 -1
2.8962164 0.83092856 0.13327953 1 -1
2.8609865 0.84083879 0.11837721 1 -1
2.8524952 0.89161968 0.11490998 1 -1
2.7986803 0.89977837 0.10072652 1 -1
2.7840028 0.93341804 0.10802016 1 -1
2.7466269 0.98706543 0.11738726 1 -1
2.7178831 1.0094404 0.11237691 1 -1
2.7076499 1.0595424 0.12564972 1 -1
2.6788015 1.0929873 0.10619494 1 -1
2.6478679 1.131109 0.13408902 1 -1
2.8759909 1.295068 0.18403947 3 -1
2.9670303 1.3895261 0.21223834 3 -1
2.9984996 1.4463769 0.23026073 3 -1
3.0313723 1.4731901 0.23182026 3 -1
3.0665181 1.5169622 0.24767983 3 -1
3.1032405 1.5647538 0.25866732 3 -1
3.0963976 1.6018043 0.25221616 3 -1
3.1147687 1.6293319 0.26591605 3 -1
3.1216514 1.6576071 0.2508488 3 -1
3.1419234 1.6831896 0.27862322 3 -1
3.1659908 1.7186463 0.28695899 3 -1
3.1682117 1.7288549 0.28533345 3 -1
3.1652677 1.789367 0.29592341 3 -1
3.163064 1.7892673 0.2809096 3 -1
3.1383004 1.8239119 0.28701678 3 -1
3.1885974 1.8506367 0.28494081 3 -1
3.1643968 1.8792362 0.27819204 3 -1
3.2126424 1.8827971 0.28512302 3 -1
4.7346807 0.42464447 0.13644508 1 -1
4.6514215 0.4052273 0.12029725 1 -1
4.6320529 0.39021182 0.12511557 1 -1
4.5983748 0.37388527 0.10809249 1 -1
4.5460954 0.37738681 0.11118057 1 -1
4.4784122 0.32618344 0.12078556 1 -1
4.4374232 0.31600761 0.12367594 1 -1
4.3908987 0.30494392 0.10156801 1 -1
4.3504357 0.28735983 0.12181345 1 -1
4.2940779 0.28965998 0.10643569 1 -1
4.2575927 0.27128398 0.11178115 1 -1
4.1881418 0.24007452 0.12947741 1 -1
4.1396818 0.25069261 0.10606948 1 -1
4.1021299 0.24464548 0.10054281 1 -1
4.0675063 0.23615575 0.11575851 1 -1
3.9950593 0.24062848 0.10543457 1 -1
3.955308 0.23773837 0.097891092 1 -1
3.9056931 0.26593256 0.11861897 1 -1
3.8665676 0.25048053 0.10092694 1 -1
3.8129075 0.24477625 0.13508064 1 -1
3.7616842 0.23202288 0.12617302 1 -1
3.7228136 0.25166786 0.12641445 1 -1
3.6651492 0.26652849 0.12259507 1 -1
3.5969954 0.27913642 0.12551469 1 -1
3.5764556 0.28715205 0.1195108 1 -1
3.5229535 0.29397416 0.1168441 1 -1
3.4796875 0.30311513 0.13320094 1 -1
3.4324605 0.32558286 0.12104744 1 -1
3.3532948 0.34586108 0.10534954 1 -1
3.3044057 0.35062075 0.10181686 1 -1
3.2751596 0.36731565 0.11896637 1 -1
3.2414017 0.39416432 0.11347389 1 -1
3.183737 0.41577339 0.13626659 1 -1
3.1484299 0.44372177 0.11747897 1 -1
3.0973206 0.45218349 0.11090846 1 -1
3.0675426 0.49894345 0.11263424 1 -1
3.0195704 0.51953065 0.13573506 1 -1
2.9767277 0.54803193 0.15118134 1 -1
2.9635928 0.56625235 0.10553131 1 -1
2.9165413 0.59598017 0.10278475 1 -1
2.8467088 0.65047383 0.12423924 1 -1
2.8174171 0.65509486 0.10944375 1 -1
2.8122606 0.71461511 0.10854298 1 -1
2.7521818 0.74064636 0.11385006 1 -1
2.715137 0.77276111 0.12028116 1 -1
2.699976 0.82316077 0.13003275 1 -1
2.6764226 0.84021664 0.11524373 1 -1
2.6331205 0.88299298 0.10900737 1 -1
2.5911288 0.91542959 0.11567038 1 -1
2.5750031 0.97601283 0.13567799 1 -1
2.5471249 1.0274334 0.10389456 1 -1
2.5370851 1.0524534 0.12746787 1 -1
2.8826866 1.3020353 0.23125228 3 -1
2.9620514 1.4088292 0.2391783 3 -1
2.9995501 1.4171951 0.24605075 3 -1
3.0415103 1.5028927 0.26125214 3 -1
3.0848684 1.5316653 0.27577895 3 -1
3.0789587 1.5620308 0.2724244 3 -1
3.0895715 1.5938778 0.27953127 3 -1
3.1292922 1.6273906 0.27602333 3 -1
3.1314595 1.6641808 0.2972014 3 -1
3.1293144 1.6802784 0.30331576 3 -1
3.1576383 1.6978536 0.30081201 3 -1
3.1532779 1.7383559 0.2817674 3 -1
3.1515832 1.758376 0.28652865 3 -1
3.159122 1.7781659 0.31720346 3 -1
3.1916156 1.8105832 0.28870392 3 -1
3.1774371 1.8199819 0.30938697 3 -1
3.1676822 1.861048 0.31024665 3 -1
3.1841846 1.8631449 0.31127346 3 -1
4.811285 0.29435217 0.12037876 1 -1
4.7654896 0.24381435 0.11018765 1 -1
4.6889448 0.24152815 0.12502211 1 -1
4.6445603 0.2067678 0.12257162 1 -1
4.6062784 0.18537831 0.12451848 1 -1
4.5284548 0.1862762 0.11273998 1 -1
4.5169811 0.15051293 0.094283402 1 -1
4.4531984 0.13962853 0.11286841 1 -1
4.4097981 0.15296936 0.12275422 1 -1
4.3261786 0.11692226 0.14341897 1 -1
4.2795687 0.10256886 0.11456916 1 -1
4.2204866 0.083097339 0.14194262 2 -1
4.1601334 0.073711872 0.1084232 1 -1
4.130003 0.10537708 0.11972535 1 -1
4.0794668 0.091595531 0.10451898 1 -1
4.0116782 0.11042213 0.12558168 1 -1
3.9537475 0.08070612 0.10567886 1 -1
3.9127307 0.094381571 0.12683901 1 -1
3.8589461 0.12108028 0.13441625 1 -1
3.8014646 0.087772846 0.11416614 1 -1
3.7277076 0.1111275 0.11511251 1 -1
3.6979883 0.084998965 0.12973759 1 -1
3.6422839 0.10036957 0.12172429 1 -1
3.5953112 0.10202992 0.12898099 1 -1
3.5280247 0.1026752 0.12051004 1 -1
3.477139 0.1297245 0.12257576 1 -1
3.4079998 0.14786053 0.12102446 1 -1
3.3752027 0.14843273 0.12860981 1 -1
3.3184443 0.18436611 0.10899907 1 -1
3.271143 0.20158243 0.1011783 1 -1
3.2200785 0.21596754 0.11406359 1 -1
3.1548529 0.24624443 0.12679011 1 -1
3.0979607 0.26324821 0.11234477 1 -1
3.067646 0.27199471 0.12333737 1 -1
3.0211017 0.30938447 0.1148859 1 -1
2.967679 0.32927668 0.10772038 1 -1
2.9314427 0.36766553 0.11240059 1 -1
2.8624191 0.38634324 0.12588599 1 -1
2.818748 0.43809104 0.1220462 1 -1
2.7827587 0.4783963 0.1265811 1 -1
2.7568552 0.49330342 0.11660478 1 -1
2.7138126 0.54732764 0.1208787 1 -1
2.6780739 0.58500314 0.11234659 1 -1
2.6291387 0.63093126 0.1233474 1 -1
2.5911088 0.65756452 0.12258855 1 -1
2.5623336 0.68303204 0.12366048 1 -1
2.5354176 0.75461864 0.10325325 1 -1
2.4900661 0.77395713 0.115738 1 -1
2.4679999 0.79332483 0.11116654 1 -1
2.4397132 0.88497007 0.10346559 1 -1
2.3962352 0.92182326 0.12155107 1 -1
2.3867946 0.95960402 0.12773624 1 -1
2.8790231 1.3130434 0.23209798 3 -1
2.9802203 1.3900054 0.25247586 3 -1
3.0103607 1.4483321 0.29010528 3 -1
3.0351207 1.4767513 0.27389133 3 -1
3.0675554 1.5459117 0.28496951 3 -1
3.0945253 1.5522864 0.27112424 3 -1
3.1190202 1.5990474 0.29997468 3 -1
3.1008251 1.6296878 0.30322188 3 -1
3.133116 1.6730838 0.31872666 3 -1
3.1491556 1.6973987 0.32320762 3 -1
3.1456816 1.7010971 0.31006229 3 -1
3.136179 1.7349623 0.31743366 3 -1
3.1492181 1.7578313 0.31614482 3 -1
3.1748223 1.7848532 0.32888538 3 -1
3.1838701 1.8034744 0.3234047 3 -1
3.1813545 1.8423387 0.30328161 3 -1
3.1879854 1.8554463 0.32761815 3 -1
3.1883099 1.8662795 0.33652881 3 -1
4.9056845 0.096249342 0.12169158 1 -1
4.8503757 0.066986203 0.10703313 1 -1
4.7738948 0.078726292 0.13535616 1 -1
4.7173071 0.076912165 0.14642072 1 -1
4.6417789 0.081122518 0.12272355 1 -1
4.5861897 0.080322027 0.14785817 1 -1
4.5219507 0.098381042 0.1392391 1 -1
4.4633889 0.084125519 0.14385021 1 -1
4.3885617 0.090816259 0.14971754 2 -1
4.3527627 0.07786727 0.14429983 2 -1
4.2881093 0.082145929 0.17855594 2 -1
4.2145576 0.090679288 0.15942127 2 -1
4.1790428 0.1153276 0.1613034 2 -1
4.1230626 0.10647082 0.15304908 2 -1
4.0620303 0.096232891 0.16979229 2 -1
4.0248718 0.089472771 0.17505345 2 -1
3.9590843 0.079026341 0.15708306 2 -1
3.9004152 0.11527908 0.17226654 2 -1
3.8552637 0.085150838 0.1766274 2 -1
3.7937589 0.093143344 0.15346131 2 -1
3.7302806 0.11222851 0.14946279 2 -1
3.6771917 0.095243812 0.15945593 2 -1
3.6275022 0.098052025 0.15089792 2 -1
3.5857058 0.095676899 0.17192328 2 -1
3.5128953 0.10678291 0.16386536 2 -1
3.4641275 0.11726046 0.15646845 2 -1
3.3940723 0.1046232 0.16904142 2 -1
3.3423743 0.11551094 0.17061543 2 -1
3.3009245 0.10017133 0.14405304 1 -1
3.2235992 0.10214651 0.15614632 2 -1
3.1733663 0.097013593 0.14774352 2 -1
3.1022458 0.095444322 0.14732829 2 -1
3.0482125 0.11017239 0.11459915 1 -1
2.964407 0.12375844 0.12606061 1 -1
2.8891499 0.12269318 0.12171225 1 -1
2.8521128 0.1493454 0.11867729 1 -1
2.8019686 0.1764698 0.12231627 1 -1
2.7562969 0.2166878 0.11387521 1 -1
2.7021918 0.23487926 0.11695221 1 -1
2.6594205 0.28762949 0.10833532 1 -1
2.6034601 0.3387934 0.1161775 1 -1
2.5597672 0.3818531 0.13234243 1 -1
2.4956284 0.42023385 0.11884829 1 -1
2.4767995 0.47358465 0.11697349 1 -1
2.4310589 0.5194366 0.11783546 1 -1
2.3876452 0.5325458 0.11571702 1 -1
2.3443141 0.5884223 0.13594094 1 -1
2.3130846 0.64593852 0.13069391 1 -1
2.2733562 0.70129478 0.11271308 1 -1
2.2541924 0.73210025 0.12111357 1 -1
2.2121329 0.78644657 0.12963441 1 -1
2.1715655 0.85077918 0.11147359 1 -1
2.9071538 1.2862155 0.24738163 3 -1
2.9611459 1.3902521 0.27996081 3 -1
3.004765 1.4368504 0.2888979 3 -1
3.0448437 1.4724684 0.29976892 3 -1
3.0616403 1.5376444 0.30262339 3 -1
3.0687001 1.5551105 0.31031635 3 -1
3.1032743 1.6112096 0.33108109 3 -1
3.0922098 1.6376753 0.32754168 3 -1
3.120728 1.6509279 0.32538149 3 -1
3.138967 1.7027428 0.34217736 3 -1
3.1511021 1.7188082 0.34825665 3 -1
3.1533542 1.7337227 0.32975346 3 -1
3.1453657 1.751359 0.32235229 3 -1
3.1751757 1.7921274 0.32304034 3 -1
3.1763093 1.8239286 0.34140936 3 -1
3.1992168 1.8363823 0.34051278 3 -1
3.1828523 1.8444971 0.34394521 3 -1
3.1874261 1.8670053 0.34948215 3 -1
4.9226618 0.084567904 0.17900145 2 -1
4.8519225 0.10038471 0.17771915 2 -1
4.7940803 0.080140829 0.1715757 2 -1
4.7208638 0.095695496 0.17406687 2 -1
4.6520958 0.063551426 0.19469044 2 -1
4.5996771 0.076748133 0.18138143 2 -1
4.5260539 0.10218394 0.19096443 2 -1
4.4730797 0.08836937 0.18926424 2 -1
4.3984771 0.09727025 0.19302186 2 -1
4.343029 0.087918162 0.20254019 2 -1
4.2800193 0.080176234 0.21015128 2 -1
4.2312136 0.09081924 0.19686934 2 -1
4.1720934 0.081051826 0.21871093 2 -1
4.1258464 0.10712111 0.21853489 2 -1
4.0567937 0.10748506 0.18305996 2 -1
3.9933426 0.08473742 0.18220013 2 -1
3.9536865 0.087175012 0.19363424 2 -1
3.9065006 0.085391998 0.21479794 2 -1
3.8409562 0.091619611 0.20343435 2 -1
3.800982 0.10569859 0.19413888 2 -1
3.7372603 0.096524835 0.2003417 2 -1
3.6848428 0.11400735 0.19861957 2 -1
3.6349342 0.10270143 0.18919659 2 -1
3.5763166 0.10852456 0.20217454 2 -1
3.534811 0.1026032 0.20315266 2 -1
3.4784343 0.090975285 0.1979627 2 -1
3.4205537 0.13348687 0.20270434 2 -1
3.3480253 0.1223563 0.18676952 2 -1
3.3056955 0.10026813 0.20008969 2 -1
3.2264972 0.11822772 0.17275694 2 -1
3.1527309 0.10626936 0.18483192 2 -1
3.1084538 0.11436164 0.17437503 2 -1
3.0411048 0.12193251 0.17242822 2 -1
2.9669762 0.10827875 0.15829957 2 -1
2.9073944 0.11796343 0.16367096 2 -1
2.8440967 0.11334193 0.15754387 2 -1
2.7796135 0.12006021 0.14841956 2 -1
2.6695786 0.12743008 0.16110355 2 -1
2.5914388 0.10807824 0.13856179 1 -1
2.521174 0.11809993 0.12995607 1 -1
2.4281988 0.11447144 0.12863666 1 -1
2.3811016 0.18380654 0.12904188 1 -1
2.3168576 0.21613359 0.14511883 1 -1
2.2795258 0.2664113 0.14674538 1 -1
2.2319684 0.31416082 0.10878927 1 -1
2.1838357 0.36525071 0.13882211 1 -1
2.1465936 0.42315376 0.1194787 1 -1
2.1006441 0.47472048 0.12410706 1 -1
2.0552497 0.54689825 0.11751647 1 -1
2.0254869 0.59946775 0.10681988 1 -1
1.9635234 0.65983689 0.13786769 1 -1
1.9481122 0.70945621 0.12950897 1 -1
2.8715317 1.317601 0.28840691 3 -1
2.9537632 1.3875904 0.31780592 3 -1
2.9988766 1.4384093 0.31111217 3 -1
3.0317059 1.4741874 0.33023632 3 -1
3.0514431 1.5430508 0.34093863 3 -1
3.0911653 1.5749998 0.32954755 3 -1
3.1155553 1.6077583 0.33779734 3 -1
3.1199391 1.6348057 0.34318572 3 -1
3.139915 1.6542354 0.35277581 3 -1
3.1327343 1.697329 0.35173053 3 -1
3.1462555 1.7189239 0.36760199 3 -1
3.1579893 1.7671928 0.37488782 3 -1
3.1607597 1.7804732 0.35333937 3 -1
3.1675787 1.8057078 0.36263499 3 -1
3.1758795 1.8245764 0.36388132 3 -1
3.1831515 1.847374 0.36158735 3 -1
3.1683772 1.8683391 0.34579688 3 -1
3.1854076 1.8882878 0.36157161 3 -1
4.921587 0.10561574 0.20950642 2 -1
4.8585267 0.080600739 0.20664445 2 -1
4.7729816 0.07647872 0.2335307 2 -1
4.702661 0.082157254 0.22103418 2 -1
4.6322608 0.084117174 0.22311169 2 -1
4.5796437 0.092273951 0.22471571 2 -1
4.519146 0.089434266 0.24393073 2 -1
4.473948 0.094602823 0.21817183 2 -1
4.4221592 0.10135078 0.2181403 2 -1
4.3601084 0.090259552 0.2391088 2 -1
4.2874198 0.092821956 0.23713458 2 -1
4.2309542 0.092474937 0.23004612 2 -1
4.1717014 0.093914986 0.22904959 2 -1
4.112443 0.10291672 0.2395798 2 -1
4.0481472 0.090947032 0.25012991 2 -1
4.0033903 0.10721493 0.23331755 2 -1
3.9640362 0.10249889 0.23313713 2 -1
3.9244971 0.099030614 0.25076747 2 -1
3.8581967 0.10007286 0.22870216 2 -1
3.7996318 0.097968936 0.23633349 2 -1
3.7377348 0.085040808 0.23978087 2 -1
3.6660483 0.10385776 0.24821216 2 -1
3.634378 0.096263051 0.25745526 2 -1
3.5776293 0.12046456 0.24858361 2 -1
3.5276718 0.11136615 0.23642474 2 -1
3.4854774 0.099761605 0.23757002 2 -1
3.4090867 0.11375952 0.23473293 2 -1
3.3302922 0.11623716 0.24182057 2 -1
3.3042428 0.1243428 0.2209509 2 -1
3.2375984 0.094128728 0.21766952 2 -1
3.182831 0.11381567 0.22279695 2 -1
3.1031327 0.090984702 0.21174374 2 -1
3.0502315 0.11637878 0.2108922 2 -1
2.9772961 0.10824752 0.23466259 2 -1
2.9002109 0.14145672 0.20148411 2 -1
2.8444226 0.11581349 0.19420323 2 -1
2.7589583 0.10819423 0.22339581 2 -1
2.6940188 0.12440419 0.21599159 2 -1
2.6039715 0.1453644 0.17629141 2 -1
2.5063612 0.11910284 0.18278342 2 -1
2.4226089 0.11929882 0.17746243 2 -1
2.3420548 0.1253078 0.16250995 2 -1
2.2312031 0.12984419 0.16017914 2 -1
2.1116376 0.12428308 0.15494505 2 -1
2.0172582 0.14826608 0.12520289 1 -1
1.9197335 0.15430427 0.13491017 1 -1
1.8553498 0.20277119 0.12355122 1 -1
1.823283 0.26676595 0.12570283 1 -1
1.785691 0.33951986 0.12262449 1 -1
1.7179019 0.41268539 0.13236818 1 -1
1.6728344 0.45125437 0.12280522 1 -1
1.6185942 0.53100073 0.1359545 1 -1
2.8852043 1.3221284 0.31320134 3 -1
2.9733546 1.3832219 0.33355111 3 -1
3.0203004 1.4399706 0.32638097 3 -1
3.048418 1.4898692 0.34264725 3 -1
3.0646203 1.5224147 0.33648762 3 -1
3.0663452 1.5596306 0.34850645 3 -1
3.0923586 1.6035019 0.3435756 3 -1
3.1174111 1.6341054 0.34778097 3 -1
3.1181576 1.6661563 0.34426767 3 -1
3.1548367 1.6853095 0.35846674 3 -1
3.1680915 1.718943 0.363372 3 -1
3.1589396 1.7152998 0.38918787 3 -1
3.1654861 1.7685292 0.36477223 3 -1
3.1600099 1.7942827 0.36673361 3 -1
3.1836743 1.8178577 0.38533962 3 -1
3.1836679 1.8315666 0.37149292 3 -1
3.1852336 1.8608094 0.36964783 3 -1
3.1912796 1.8597121 0.34860218 3 -1
4.8986778 0.088771701 0.25134361 2 -1
4.8418794 0.084652066 0.26767418 2 -1
4.7639832 0.073891044 0.25999644 2 -1
4.7169518 0.074582219 0.26932842 2 -1
4.6481452 0.087418079 0.25636631 2 -1
4.5694027 0.076069593 0.26120949 2 -1
4.5227294 0.097484231 0.27115119 2 -1
4.4556022 0.085945845 0.27031174 2 -1
4.4116755 0.087420106 0.28359008 2 -1
4.3435035 0.10509932 0.28312799 2 -1
4.2628074 0.10612881 0.28465763 2 -1
4.2221541 0.10098052 0.26683921 2 -1
4.1860604 0.088305354 0.26188326 2 -1
4.1190929 0.10855019 0.26357892 2 -1
4.0653734 0.10103929 0.31314966 2 -1
4.0165377 0.094771147 0.28644687 2 -1
3.9628568 0.079920888 0.28255293 2 -1
3.9284158 0.089108467 0.28850979 2 -1
3.850405 0.084002137 0.2754603 2 -1
3.7964845 0.097871542 0.26827008 2 -1
3.7435935 0.10359597 0.28189445 2 -1
3.6739755 0.099440336 0.2711699 2 -1
3.658025 0.11125195 0.26706535 2 -1
3.5503964 0.11766672 0.26942223 2 -1
3.5225453 0.10408616 0.27683991 2 -1
3.4685025 0.10532451 0.26171663 2 -1
3.4234467 0.11742592 0.2882846 2 -1
3.3409488 0.11393929 0.25895423 2 -1
3.2988563 0.10803616 0.28181493 2 -1
3.2249672 0.12226772 0.26981342 2 -1
3.1779249 0.098922491 0.27358407 2 -1
3.1049216 0.11718273 0.25612509 2 -1
3.0433199 0.10616899 0.25535345 2 -1
2.978549 0.10469604 0.26399601 2 -1
2.9174013 0.11777246 0.23344979 2 -1
2.8458071 0.10179448 0.26669312 2 -1
2.7446823 0.12521482 0.24353018 2 -1
2.7007544 0.11386395 0.24082914 2 -1
2.5865331 0.12197769 0.21616733 2 -1
2.5025868 0.12989438 0.2429868 2 -1
2.4334929 0.13423061 0.21482265 2 -1
2.3402481 0.11596775 0.20550677 2 -1
2.2259383 0.13720918 0.20810604 2 -1
2.1182356 0.1412828 0.20101011 2 -1
2.0152705 0.12715149 0.2157107 2 -1
1.8911471 0.15364277 0.18277398 2 -1
1.7846625 0.13691306 0.17682418 2 -1
1.6265337 0.11700511 0.18204686 2 -1
1.513061 0.14445877 0.1548655 2 -1
1.3439176 0.14045846 0.14022481 2 -1
1.2585721 0.21654546 0.14151052 1 -1
1.2322516 0.28210497 0.12860417 1 -1
2.8879502 1.3031979 0.33864987 3 -1
2.9745724 1.3793793 0.35265166 3 -1
2.9991927 1.4367788 0.37329003 3 -1
3.04252 1.4900484 0.36191294 3 -1
3.0605984 1.5401413 0.38760391 3 -1
3.0853202 1.5622842 0.3627874 3 -1
3.0882597 1.6153686 0.38064793 3 -1
3.119616 1.6452278 0.38954312 3 -1
3.1204252 1.6681958 0.38545042 3 -1
3.1270196 1.6895206 0.38559663 3 -1
3.1533079 1.7039254 0.37935591 3 -1
3.1456184 1.7506608 0.3777388 3 -1
3.156743 1.7706337 0.36452264 3 -1
3.1790323 1.790197 0.39936948 3 -1
3.1825833 1.8220588 0.39867553 3 -1
3.1813536 1.8307468 0.39798295 3 -1
3.1749902 1.8730413 0.39574847 3 -1
3.1841474 1.8674058 0.39715374 3 -1
4.9270678 0.070246577 0.29104301 2 -1
4.8402767 0.090469599 0.30556005 2 -1
4.7726612 0.079925299 0.3056978 2 -1
4.7073417 0.08464849 0.28918308 2 -1
4.6617765 0.094247103 0.30077934 2 -1
4.5835352 0.079366684 0.30038691 2 -1
4.5256376 0.095720053 0.33509675 2 -1
4.4737558 0.068688273 0.30781215 2 -1
4.3985758 0.083846807 0.3239736 2 -1
4.3428817 0.093148708 0.30960456 2 -1
4.2840548 0.084163785 0.30928355 2 -1
4.2254295 0.07947588 0.30336088 2 -1
4.1896 0.10234463 0.32538235 2 -1
4.1033087 0.087612629 0.32255393 2 -1
4.0786986 0.084339619 0.32451349 2 -1
3.988091 0.098697305 0.32134721 2 -1
3.9643581 0.097399116 0.30448994 2 -1
3.912972 0.098869205 0.3208614 2 -1
3.8330202 0.093533635 0.31208599 2 -1
3.7939003 0.097500801 0.31956583 2 -1
3.7621088 0.09603107 0.30311215 2 -1
3.6988425 0.10238039 0.32375914 2 -1
3.6355975 0.11847532 0.30544859 2 -1
3.6055248 0.090613842 0.30791813 2 -1
3.5258489 0.08969152 0.29964095 2 -1
3.4503016 0.10057223 0.32211679 2 -1
3.4114594 0.11318731 0.32273659 2 -1
3.3813081 0.11690974 0.29744646 2 -1
3.3029881 0.11693418 0.30316639 2 -1
3.2316008 0.10497069 0.30598924 2 -1
3.1696911 0.10565376 0.29677913 2 -1
3.0936043 0.10761154 0.30185479 2 -1
3.0277858 0.11164618 0.30970767 2 -1
2.9938598 0.10578966 0.30390471 2 -1
2.9082885 0.12545717 0.29299039 2 -1
2.8294497 0.11379755 0.27877787 2 -1
2.7733283 0.13056505 0.30722484 2 -1
2.6667676 0.11285341 0.29658151 2 -1
2.6134088 0.11849809 0.27200496 2 -1
2.4912896 0.13920593 0.26502925 2 -1
2.4322662 0.13607347 0.25472683 2 -1
2.3335423 0.13575411 0.26230359 2 -1
2.2345772 0.13979971 0.27241582 2 -1
2.1344037 0.13758516 0.26991922 2 -1
2.0103943 0.12670839 0.257397 2 -1
1.9052091 0.13751543 0.23486343 2 -1
1.7788363 0.15333498 0.20904624 2 -1
1.6316006 0.15196967 0.22133771 2 -1
1.5064733 0.14865863 0.20110703 2 -1
1.3506496 0.14731514 0.20097584 2 -1
1.1706583 0.15506053 0.20036772 2 -1
0.98275375 0.15516901 0.17680269 2 -1
2.8822176 1.3088906 0.3727164 3 -1
2.9579804 1.381614 0.37954059 3 -1
2.9924703 1.4368973 0.38859934 3 -1
3.0449679 1.4822984 0.37990838 3 -1
3.0600452 1.5163317 0.40133083 3 -1
3.0951383 1.5569878 0.39714447 3 -1
3.0997396 1.5867271 0.39113209 3 -1
3.1182656 1.6270328 0.41047433 3 -1
3.1342487 1.661206 0.38431758 3 -1
3.1407859 1.6882484 0.41092232 3 -1
3.1221931 1.7200301 0.40742141 3 -1
3.1471472 1.7448227 0.39998612 3 -1
3.1682963 1.7707146 0.41652527 3 -1
3.1606205 1.7896092 0.39313206 3 -1
3.1629493 1.8203398 0.41759014 3 -1
3.1818702 1.8435566 0.39563453 3 -1
3.1819477 1.865319 0.39490917 3 -1
3.1892271 1.8699658 0.40791133 3 -1
4.9193273 0.090699315 0.34062794 2 -1
4.8508577 0.078636289 0.3390165 2 -1
4.7689657 0.085741162 0.34209883 2 -1
4.71101 0.099489808 0.33576757 2 -1
4.6435003 0.078010917 0.35436743 2 -1
4.5672708 0.064714074 0.34860545 2 -1
4.5285692 0.069211602 0.33545095 2 -1
4.4545283 0.088259816 0.35594878 2 -1
4.3935623 0.08498466 0.34077352 2 -1
4.3272576 0.094004869 0.33553627 2 -1
4.2831974 0.081065416 0.36022663 2 -1
4.2236538 0.10577428 0.3533031 2 -1
4.1696863 0.091745973 0.35619551 2 -1
4.1343956 0.094109178 0.35380125 2 -1
4.0752845 0.08260119 0.35774541 2 -1
4.0027962 0.094868422 0.35832918 2 -1
3.9670138 0.1026932 0.36414424 2 -1
3.9033058 0.097576618 0.36261833 2 -1
3.8556244 0.08951211 0.34628618 2 -1
3.7977281 0.10253847 0.36673266 2 -1
3.7500994 0.1036036 0.35024673 2 -1
3.6852107 0.12383735 0.33769995 2 -1
3.6603088 0.10351717 0.35050714 2 -1
3.585624 0.11587095 0.34972915 2 -1
3.5287979 0.1082747 0.34823227 2 -1
3.4808812 0.11253667 0.35374272 2 -1
3.4225235 0.10498393 0.3353917 2 -1
3.3441286 0.11439717 0.37209874 2 -1
3.2910299 0.10557878 0.34748209 2 -1
3.2384334 0.11741424 0.3468051 2 -1
3.1731234 0.1231339 0.33656651 2 -1
3.1121836 0.1060251 0.36050656 2 -1
3.0544424 0.11417699 0.35375872 2 -1
2.9794908 0.11447847 0.34583688 2 -1
2.920943 0.12581277 0.3504976 2 -1
2.8266144 0.10112858 0.34949678 2 -1
2.7590032 0.12062621 0.34175819 2 -1
2.6581163 0.11441386 0.34346914 2 -1
2.607935 0.12121093 0.3115494 2 -1
2.5142736 0.10548818 0.34090555 2 -1
2.4356873 0.11720598 0.32070151 2 -1
2.330055 0.12609839 0.31093267 2 -1
2.23527 0.12456214 0.29962486 2 -1
2.1357617 0.13657176 0.33346027 2 -1
2.027247 0.13436234 0.29513878 2 -1
1.9012103 0.15565264 0.29360718 2 -1
1.7894223 0.14051712 0.30249962 2 -1
1.6288593 0.12467909 0.27513841 2 -1
1.491132 0.13853204 0.29592806 2 -1
1.3450656 0.14749467 0.26563784 2 -1
1.1702855 0.14014125 0.25676745 2 -1
0.98536634 0.15625787 0.25861445 2 -1
2.8769665 1.3035393 0.39518201 3 -1
2.965776 1.3927057 0.39391926 3 -1
2.9999001 1.4310007 0.40358356 3 -1
3.0145845 1.4897614 0.41063008 3 -1
3.0892963 1.5217162 0.41244936 3 -1
3.085372 1.5695908 0.41775614 3 -1
3.1141016 1.595665 0.43300915 3 -1
3.1122301 1.6469004 0.40727445 3 -1
3.1272578 1.6713231 0.42236862 3 -1
3.1515956 1.6882043 0.42209005 3 -1
3.1476083 1.7215538 0.42130226 3 -1
3.1513629 1.7387412 0.41616583 3 -1
3.1466639 1.7706189 0.41441756 3 -1
3.1790016 1.7924402 0.43758976 3 -1
3.1938429 1.8075395 0.44908759 3 -1
3.1885524 1.8317082 0.42027986 3 -1
3.1717548 1.8722794 0.44172573 3 -1
3.2014956 1.8841932 0.42459658 3 -1
4.9271049 0.090243101 0.40472943 2 -1
4.8483515 0.096066356 0.39444241 2 -1
4.7783446 0.091154337 0.40013757 2 -1
4.7064333 0.083601594 0.3926366 2 -1
4.6357965 0.09563899 0.39295024 2 -1
4.5909157 0.081845999 0.38332304 2 -1
4.5402002 0.088838816 0.39320713 2 -1
4.4716377 0.088692546 0.39415556 2 -1
4.3985376 0.088433027 0.39690903 2 -1
4.3626547 0.084226251 0.39781716 2 -1
4.2925143 0.098816395 0.39413518 2 -1
4.2245679 0.10077918 0.37581038 2 -1
4.1870894 0.10631311 0.38055086 2 -1
4.1174622 0.089319468 0.38858658 2 -1
4.0696135 0.10721278 0.39837831 2 -1
4.0173812 0.10824585 0.40858525 2 -1
3.9780276 0.08453846 0.38051641 2 -1
3.9036815 0.12374449 0.4067665 2 -1
3.8490431 0.10623562 0.39003915 2 -1
3.8101876 0.11394083 0.39409804 2 -1
3.7399123 0.093211532 0.39261681 2 -1
3.6828635 0.092254519 0.38202068 2 -1
3.6293619 0.11104393 0.37833959 2 -1
3.589447 0.11188996 0.39796114 2 -1
3.5340068 0.11214626 0.4055506 2 -1
3.4683273 0.11986911 0.38110727 2 -1
3.4247475 0.11759043 0.38396022 2 -1
3.3525448 0.12266064 0.37738645 2 -1
3.277564 0.10715044 0.3867532 2 -1
3.2302561 0.10998762 0.38633284 2 -1
3.1723733 0.10393584 0.41085815 2 -1
3.1007476 0.11801314 0.36850893 2 -1
3.0313747 0.094920754 0.382191 2 -1
2.987824 0.096000314 0.40168035 2 -1
2.9055495 0.1166538 0.36714363 2 -1
2.8391268 0.098056793 0.3538304 2 -1
2.7658935 0.14287484 0.38352412 2 -1
2.6856036 0.11787641 0.38265076 2 -1
2.6018901 0.10210037 0.3798587 2 -1
2.5220456 0.11937892 0.37664881 2 -1
2.4395838 0.14247859 0.35598284 2 -1
2.3158786 0.11778963 0.35640582 2 -1
2.2342768 0.13243723 0.3804864 2 -1
2.1188955 0.12973058 0.35670573 2 -1
2.0184281 0.14094126 0.35032868 2 -1
1.9041314 0.11861312 0.35933757 2 -1
1.7772176 0.12319684 0.35195586 2 -1
1.6628556 0.15142274 0.35251155 2 -1
1.5088093 0.14455569 0.33549562 2 -1
1.3421597 0.14636862 0.32995337 2 -1
1.1691871 0.15227175 0.3233856 2 -1
0.97917724 0.14381111 0.32204074 2 -1
2.8749456 1.2968777 0.420818 3 -1
2.9787457 1.3762543 0.43457365 3 -1
2.9928598 1.4377149 0.42298517 3 -1
3.0346472 1.4844112 0.43022585 3 -1
3.07143 1.5457993 0.44103268 3 -1
3.0820315 1.5734204 0.43265361 3 -1
3.0942087 1.5911789 0.43936875 3 -1
3.1092618 1.6353565 0.4442997 3 -1
3.1338243 1.6422946 0.43059018 3 -1
3.1472139 1.681324 0.42892888 3 -1
3.1556032 1.7395542 0.42203373 3 -1
3.1489873 1.7328539 0.43523729 3 -1
3.1706305 1.7776785 0.44152015 3 -1
3.1766968 1.7989082 0.44646066 3 -1
3.1776423 1.8056718 0.45373809 3 -1
3.1837597 1.8505919 0.43326923 3 -1
3.1913838 1.857667 0.43922383 3 -1
3.1815767 1.8813211 0.43626809 3 -1
4.9212012 0.088556528 0.43390092 2 -1
4.8185959 0.11897409 0.43733817 2 -1
4.7755871 0.087527275 0.41971198 2 -1
4.6998434 0.083556771 0.43041918 2 -1
4.6623106 0.085755944 0.43391734 2 -1
4.5903668 0.084868193 0.41593558 2 -1
4.5249205 0.092184782 0.43300787 2 -1
4.4709053 0.086150408 0.43056828 2 -1
4.4267306 0.089853048 0.43198395 2 -1
4.3614917 0.086590409 0.43775663 2 -1
4.2811751 0.070354462 0.41564348 2 -1
4.226367 0.093289256 0.43120262 2 -1
4.1842117 0.1013099 0.44999811 2 -1
4.1086082 0.1118288 0.42629212 2 -1
4.0666957 0.092552781 0.42913985 2 -1
4.0031538 0.10282445 0.43292984 2 -1
3.9763033 0.092279911 0.43682143 2 -1
3.9312422 0.08841157 0.43021441 2 -1
3.8598747 0.10734332 0.43649653 2 -1
3.8119261 0.10548425 0.41803768 2 -1
3.7404449 0.10399866 0.4297145 2 -1
3.6792383 0.0949651 0.44041386 2 -1
3.6465778 0.11948955 0.43548906 2 -1
3.5729444 0.091507196 0.42608184 2 -1
3.5250111 0.11146712 0.42806002 2 -1
3.4887409 0.094259262 0.4411014 2 -1
3.4050417 0.11878598 0.43528906 2 -1
3.3608387 0.11192787 0.44522637 2 -1
3.2924421 0.12303472 0.43206155 2 -1
3.2265787 0.11573625 0.43600553 2 -1
3.165988 0.11383629 0.42779046 2 -1
3.1167309 0.12391865 0.43161866 2 -1
3.0242376 0.11571658 0.44081804 2 -1
2.9820936 0.12302756 0.4300772 2 -1
2.9067221 0.12150228 0.44356585 2 -1
2.831181 0.11964273 0.41792542 2 -1
2.7639563 0.10282063 0.4143669 2 -1
2.6790609 0.10993409 0.43336311 2 -1
2.5858328 0.1259712 0.43240508 2 -1
2.5250535 0.12520266 0.4289397 2 -1
2.4287925 0.13446164 0.41253504 2 -1
2.3417938 0.12574792 0.43911454 2 -1
2.2247496 0.15131187 0.43806747 2 -1
2.1331286 0.12586522 0.41235819 2 -1
2.0204492 0.13618195 0.40844059 2 -1
1.9049733 0.13738537 0.42299199 2 -1
1.7794228 0.13088369 0.42623499 2 -1
1.6578052 0.15007865 0.40246379 2 -1
1.5017786 0.14290559 0.39627954 2 -1
1.3370245 0.14575613 0.41018155 2 -1
1.1870401 0.13126898 0.40225154 2 -1
0.96472573 0.15503287 0.3867211 2 -1
2.8923955 1.3211157 0.44320861 3 -1
2.973702 1.398473 0.4456051 3 -1
3.0014007 1.4530239 0.44382137 3 -1
3.0224142 1.474005 0.44968387 3 -1
3.0756083 1.5213928 0.43355292 3 -1
3.0846205 1.566334 0.46865994 3 -1
3.1100817 1.6024103 0.44871244 3 -1
3.1192698 1.6499811 0.44631356 3 -1
3.1190188 1.6692369 0.45208663 3 -1
3.128015 1.6995792 0.44623578 3 -1
