# .PCD v0.7 - Point Cloud Data file format
VERSION 0.7
FIELDS x y z label
SIZE 4 4 4 4
TYPE F F F U
COUNT 1 1 1 1
WIDTH 1342
HEIGHT 1
VIEWPOINT 2.29997 7.00002 0.0997688 1 0 0 0
POINTS 1342
DATA ascii
3.2714915 6.6621046 0.2761904 3 -1
3.2628701 6.6515698 0.25645119 3 -1
3.2793522 6.5906181 0.2635394 3 -1
3.2983854 6.5560546 0.26573524 3 -1
3.3129582 6.516499 0.26181924 3 -1
3.3403819 6.454391 0.22932833 3 -1
3.3836675 6.3844872 0.23458514 3 -1
3.4750805 6.2747746 0.19870895 3 -1
3.7635255 6.0212317 0.10876337 1 -1
3.726584 5.9829774 0.12357682 1 -1
3.6670098 5.9640102 0.12315598 1 -1
3.6577787 5.9195495 0.10519645 1 -1
3.6389613 5.8813176 0.14966077 1 -1
3.5749049 5.8330064 0.11530697 1 -1
3.541101 5.8148656 0.11887544 1 -1
3.4967318 5.7881618 0.12649146 1 -1
3.4838681 5.7603202 0.10974121 1 -1
3.4307408 5.7294769 0.10767549 1 -1
3.4022169 5.6995697 0.11915883 1 -1
3.3619242 5.6643019 0.12770703 1 -1
3.3143592 5.6439228 0.12373441 1 -1
3.2722392 5.6295953 0.11975157 1 -1
3.2575154 5.6018476 0.10756651 1 -1
3.3757739 8.5379992 0.1186882 1 -1
3.4241724 8.5104351 0.11794683 1 -1
3.4618959 8.4744501 0.13270423 1 -1
3.5147448 8.4499588 0.11012977 1 -1
3.5685906 8.4382401 0.12100458 1 -1
3.605617 8.4001312 0.10754514 1 -1
3.6552362 8.3478928 0.12302792 1 -1
3.6949682 8.3004627 0.11168054 1 -1
3.718966 8.2733583 0.08822161 1 -1
3.7747231 8.2383661 0.10075799 1 -1
3.7972674 8.186821 0.13261768 1 -1
3.8275571 8.1502295 0.10840768 1 -1
3.8839107 8.1215248 0.11906171 1 -1
3.8983002 8.0704231 0.10728487 1 -1
3.9346523 8.0188303 0.11448303 1 -1
3.4986825 7.6748319 0.23561099 3 -1
3.4235029 7.5963397 0.26255575 3 -1
3.3692169 7.5207691 0.27168471 3 -1
3.3607559 7.4568262 0.27917707 3 -1
3.307611 7.402719 0.29826438 3 -1
3.2935829 7.3657451 0.29535639 3 -1
3.2681594 7.3202162 0.3062422 3 -1
3.2558513 7.307478 0.31364229 3 -1
3.2548161 7.2650738 0.29297382 3 -1
3.2361226 7.2326765 0.30560464 3 -1
3.2472563 7.2152271 0.32066962 3 -1
3.2286296 7.1919231 0.32226145 3 -1
3.2248797 7.1575079 0.31868392 3 -1
3.2125034 7.1213589 0.30723584 3 -1
3.1980584 7.1235023 0.3328492 3 -1
3.2137785 7.112679 0.32323182 3 -1
3.2111681 7.0783048 0.312962 3 -1
3.2078357 7.0489588 0.32346702 3 -1
3.2106204 7.0102077 0.3165141 3 -1
3.1892908 6.9946809 0.30908105 3 -1
3.2023706 6.9734502 0.33000118 3 -1
3.2035017 6.9559765 0.31543711 3 -1
3.210619 6.940279 0.3170886 3 -1
3.2153168 6.8980889 0.31884444 3 -1
3.2257624 6.8813672 0.32091141 3 -1
3.2104239 6.8688135 0.31552133 3 -1
3.2081561 6.8435984 0.30416989 3 -1
3.2110076 6.7869372 0.30631477 3 -1
3.2184706 6.7924509 0.32462439 3 -1
3.2325101 6.748559 0.29776901 3 -1
3.2218523 6.7346873 0.30168158 3 -1
3.2364478 6.681838 0.29671168 3 -1
3.2569847 6.6495519 0.2955144 3 -1
3.2354064 6.6018305 0.30780593 3 -1
3.2653785 6.5685024 0.29905796 3 -1
3.3106561 6.5423713 0.26671126 3 -1
3.3127511 6.5052609 0.29367229 3 -1
3.3473768 6.4436712 0.26217371 3 -1
3.389689 6.3567533 0.26575089 3 -1
3.4745388 6.2911158 0.23998068 3 -1
3.8936224 5.912827 0.12500766 1 -1
3.8563151 5.8742485 0.12701482 1 -1
3.8336482 5.8510213 0.12785384 1 -1
3.7874422 5.7854228 0.11987376 1 -1
3.7490873 5.7611036 0.11917952 1 -1
3.7173524 5.7242804 0.10696697 1 -1
3.6912522 5.680562 0.11220828 1 -1
3.621294 5.6295729 0.12028399 1 -1
3.5838752 5.6209059 0.12145814 1 -1
3.5490503 5.5603948 0.10355377 1 -1
3.4859223 5.5434833 0.11221528 1 -1
3.4477262 5.5091605 0.11140323 1 -1
3.4103589 5.4864683 0.10541829 1 -1
3.3644903 5.4566135 0.12488517 1 -1
3.339251 5.4385133 0.11564535 1 -1
3.5170426 8.7375765 0.10002586 1 -1
3.5412121 8.6944599 0.11132839 1 -1
3.6089134 8.6864643 0.11306244 1 -1
3.6451349 8.6242743 0.11256763 1 -1
3.6856871 8.5973673 0.11125086 1 -1
3.7411003 8.5393667 0.11796093 1 -1
3.8115981 8.5218773 0.12525323 1 -1
3.8331389 8.4643888 0.11367929 1 -1
3.8898745 8.4387999 0.12021521 1 -1
3.9309287 8.4009638 0.13045067 1 -1
3.9718375 8.3459396 0.10960197 1 -1
4.0161138 8.2696476 0.11363104 1 -1
4.0590467 8.2683907 0.10801256 1 -1
4.0793185 8.1932049 0.12524056 1 -1
4.1176391 8.1510429 0.11950159 1 -1
3.510221 7.6890168 0.27823806 3 -1
3.424921 7.5761514 0.2757501 3 -1
3.3861699 7.5106955 0.28694707 3 -1
3.322567 7.4650412 0.3006219 3 -1
3.3196578 7.4272399 0.31726897 3 -1
3.2903614 7.3944087 0.32255736 3 -1
3.2808161 7.3329172 0.3222729 3 -1
3.2677598 7.2935882 0.32261276 3 -1
3.2571959 7.2705922 0.31771493 3 -1
3.2352562 7.2299147 0.33151922 3 -1
3.2341297 7.2078309 0.32960612 3 -1
3.224926 7.1801996 0.34904993 3 -1
3.2291894 7.1699591 0.33287609 3 -1
3.215627 7.1325998 0.33418366 3 -1
3.2249498 7.1305151 0.33470756 3 -1
3.2206955 7.0828857 0.34163949 3 -1
3.2091637 7.0542536 0.35349327 3 -1
3.2206311 7.0467005 0.33046263 3 -1
3.226264 7.01617 0.32458138 3 -1
3.205719 6.9969068 0.34131086 3 -1
3.2125533 6.976191 0.34414023 3 -1
3.2129068 6.9494457 0.35766286 3 -1
3.1972523 6.9282036 0.34780243 3 -1
3.2090454 6.8998518 0.34909856 3 -1
3.1998658 6.8821297 0.32119 3 -1
3.2131047 6.8474641 0.32431909 3 -1
3.2107742 6.8371229 0.32962975 3 -1
3.1933551 6.8134208 0.30778965 3 -1
3.2151937 6.777822 0.32818514 3 -1
3.2131848 6.7668962 0.33879748 3 -1
3.2301445 6.734652 0.32847422 3 -1
3.2428913 6.6936421 0.3282268 3 -1
3.2352083 6.6682024 0.3308419 3 -1
3.2661152 6.6400042 0.32232314 3 -1
3.2815914 6.6059484 0.32463452 3 -1
3.3042688 6.5424466 0.30437693 3 -1
3.3111315 6.4928355 0.29574174 3 -1
3.3563643 6.4568391 0.27422091 3 -1
3.4111228 6.3875098 0.28897989 3 -1
3.4739218 6.2640471 0.24231288 3 -1
4.07442 5.7873917 0.1205028 1 -1
4.027854 5.7497234 0.12843186 1 -1
3.9785748 5.6907668 0.11060707 1 -1
3.9575615 5.6458292 0.14226109 1 -1
3.9027486 5.605123 0.12525091 1 -1
3.8556013 5.5582972 0.12786302 1 -1
3.8286085 5.5246005 0.13284653 1 -1
3.7667789 5.4743853 0.094004333 1 -1
3.726254 5.44873 0.12843049 1 -1
3.6757526 5.3977613 0.13810843 1 -1
3.6196785 5.3730721 0.13360876 1 -1
3.5599723 5.3070116 0.12667724 1 -1
3.526011 5.3036642 0.12678739 1 -1
3.4608006 5.2729487 0.11940637 1 -1
3.4452794 5.2519474 0.13634968 1 -1
3.6550536 8.9795389 0.11791757 1 -1
3.7008104 8.9378853 0.11916667 1 -1
3.763711 8.8992186 0.11702988 1 -1
3.8066092 8.8542862 0.12400845 1 -1
3.8745298 8.8133917 0.12589774 1 -1
3.9287195 8.7680368 0.12547883 1 -1
3.9693332 8.7183962 0.11600691 1 -1
4.0310879 8.6767826 0.10408646 1 -1
4.083148 8.6255054 0.13267207 1 -1
4.1410065 8.581111 0.1284436 1 -1
4.1833878 8.5156279 0.12249634 1 -1
4.2213049 8.4594612 0.12952438 1 -1
4.2565184 8.420723 0.10892013 1 -1
4.2972417 8.3589163 0.12450495 1 -1
4.3441625 8.3195715 0.131868 1 -1
3.5211277 7.6696157 0.28723788 3 -1
3.412416 7.5687461 0.30572784 3 -1
3.3322997 7.5193892 0.29521009 3 -1
3.3242273 7.4532413 0.31579101 3 -1
3.3139195 7.4211292 0.32747847 3 -1
3.2900808 7.3690901 0.32639974 3 -1
3.2653456 7.325521 0.327104 3 -1
3.2606087 7.3252869 0.33711219 3 -1
3.2368975 7.2799878 0.34563234 3 -1
3.223896 7.258697 0.34044039 3 -1
3.2455087 7.2214708 0.347 3 -1
3.2341452 7.1874342 0.35977435 3 -1
3.2257643 7.1464529 0.35605264 3 -1
3.2139285 7.13484 0.36440152 3 -1
3.2031469 7.1149211 0.34817719 3 -1
3.2155404 7.0939846 0.34289223 3 -1
3.2081106 7.0615826 0.36386675 3 -1
3.2307787 7.0547037 0.3591578 3 -1
3.1920805 6.9914594 0.34988123 3 -1
3.2062731 7.0081959 0.3702808 3 -1
3.2093062 6.9871407 0.35636592 3 -1
3.1969991 6.9560099 0.34865639 3 -1
3.2121234 6.9375138 0.35441834 3 -1
3.2045789 6.8856912 0.34976038 3 -1
3.2022529 6.8837624 0.33951497 3 -1
3.2222698 6.8688951 0.36580348 3 -1
3.2078612 6.8355603 0.36409485 3 -1
3.2142823 6.8190384 0.36490136 3 -1
3.2302909 6.7908797 0.3481831 3 -1
3.2288222 6.7537174 0.33437365 3 -1
3.2240911 6.7175012 0.32791427 3 -1
3.263294 6.6900272 0.34648931 3 -1
3.2314396 6.6456671 0.34759063 3 -1
3.2663689 6.6473799 0.33678788 3 -1
3.2750754 6.582478 0.32639125 3 -1
3.3027325 6.5535479 0.31144685 3 -1
3.3116064 6.4939804 0.32483235 3 -1
3.3629422 6.4380426 0.32582515 3 -1
3.3765388 6.3800735 0.30873051 3 -1
3.4825301 6.2678308 0.28206158 3 -1
4.3087997 5.6240053 0.12602466 1 -1
4.2395172 5.5708213 0.10701555 1 -1
4.2008915 5.5078592 0.1300301 1 -1
4.1435452 5.4614563 0.12304437 1 -1
4.0954542 5.4093056 0.13096273 1 -1
4.053679 5.3686719 0.12210074 1 -1
3.9989276 5.3257017 0.10503739 1 -1
3.9423809 5.2741909 0.12861049 1 -1
3.8968301 5.2314343 0.13435835 1 -1
3.8250551 5.1919117 0.12758848 1 -1
3.8062806 5.1403112 0.12610084 1 -1
3.7332821 5.1254206 0.12113655 1 -1
3.6775103 5.0622764 0.11867741 1 -1
3.6066051 5.0461817 0.12609294 1 -1
3.5945997 5.0143251 0.1122295 1 -1
3.82055 9.2801762 0.11918169 1 -1
3.9083047 9.2275553 0.11207512 1 -1
3.9655361 9.202364 0.1207349 1 -1
4.0421524 9.1486807 0.11336106 1 -1
4.0810027 9.0924902 0.12783602 1 -1
4.1446972 9.0552454 0.14103615 1 -1
4.2256279 8.9989605 0.14432043 1 -1
4.2660394 8.9591465 0.12245926 1 -1
4.342803 8.894906 0.13844997 1 -1
4.4152184 8.8452282 0.12673229 1 -1
4.4449701 8.7588959 0.14931339 1 -1
4.4966164 8.7129087 0.13615528 1 -1
4.5381665 8.6434116 0.11904547 1 -1
4.5812855 8.5776911 0.11912897 1 -1
4.6422439 8.4834204 0.14122188 1 -1
3.5037866 7.686245 0.31946287 3 -1
3.420342 7.5704737 0.31833562 3 -1
3.3753691 7.5211535 0.33596551 3 -1
3.3440614 7.4583502 0.35700327 3 -1
3.3069429 7.4226813 0.32465619 3 -1
3.2752204 7.3806753 0.33889195 3 -1
3.2771497 7.3326221 0.35940403 3 -1
3.2402143 7.3069482 0.35450047 3 -1
3.2585444 7.2772808 0.3826533 3 -1
3.2247128 7.2543621 0.37400478 3 -1
3.2445755 7.197679 0.35526198 3 -1
3.2336555 7.1890898 0.34757081 3 -1
3.2111292 7.1579881 0.35478359 3 -1
3.2256994 7.1340809 0.37738681 3 -1
3.1976173 7.1172962 0.38381028 3 -1
3.20749 7.0893903 0.37191182 3 -1
3.212954 7.059154 0.35390294 3 -1
3.2012587 7.0378447 0.3667019 3 -1
3.2132573 7.0064001 0.36652958 3 -1
3.1982632 6.9950747 0.373891 3 -1
3.1988416 6.9965434 0.38255435 3 -1
3.2048831 6.9523158 0.37485689 3 -1
3.2106791 6.9173937 0.37768757 3 -1
3.199441 6.8943944 0.37182355 3 -1
3.2169414 6.8745747 0.3650614 3 -1
3.2116737 6.8715954 0.36838138 3 -1
3.2120204 6.8356242 0.38377929 3 -1
3.2099347 6.7860479 0.35823423 3 -1
3.2263374 6.7742648 0.3685286 3 -1
3.2250934 6.7513952 0.3755101 3 -1
3.2204566 6.7266483 0.36121809 3 -1
3.2315288 6.6751304 0.37426847 3 -1
3.2572842 6.6762323 0.351771 3 -1
3.2591004 6.6196485 0.3590768 3 -1
3.2720628 6.5893059 0.36401314 3 -1
3.2782462 6.5549035 0.34363851 3 -1
3.3183632 6.5029635 0.3160226 3 -1
3.36377 6.4413486 0.3401584 3 -1
3.4016426 6.3694663 0.3314569 3 -1
3.4760041 6.2776351 0.29100117 3 -1
4.5813246 5.3928375 0.14652416 1 -1
4.51122 5.3424263 0.129839 1 -1
4.4784174 5.2868838 0.11833191 1 -1
4.4091134 5.2355862 0.13931665 1 -1
4.3719845 5.172606 0.1381458 1 -1
4.3048201 5.1134381 0.10374251 1 -1
4.2680378 5.0654993 0.13364312 1 -1
4.1857166 5.0224714 0.12646624 1 -1
4.1064339 4.9582081 0.12662134 1 -1
4.0578394 4.9009948 0.13909608 1 -1
4.0081525 4.8777447 0.12709302 1 -1
3.9217706 4.8037205 0.12617472 1 -1
3.860486 4.7822428 0.12111446 1 -1
3.7955375 4.7337198 0.12708142 1 -1
3.7594256 4.7126856 0.1258471 1 -1
4.095099 9.7000084 0.15574077 1 -1
4.1698442 9.667491 0.13168859 1 -1
4.2573977 9.6051693 0.12967747 1 -1
4.3067732 9.5416059 0.11748075 1 -1
4.4030333 9.4741125 0.12539211 1 -1
4.476264 9.4313745 0.13692623 1 -1
4.5429397 9.3733463 0.14163366 1 -1
4.6327229 9.3035126 0.13487113 1 -1
4.6930637 9.2342739 0.13849077 1 -1
4.7478409 9.1756573 0.13680217 1 -1
4.8007011 9.0952711 0.13808465 1 -1
4.8688478 9.0233812 0.11938667 1 -1
4.9385753 8.9361286 0.12223014 1 -1
5.0095596 8.8603239 0.12849739 1 -1
5.0493722 8.8079948 0.11713266 1 -1
3.4965472 7.6748972 0.3270821 3 -1
3.4109907 7.5690465 0.33449131 3 -1
3.3490634 7.5231161 0.3499428 3 -1
3.3282161 7.4527783 0.35080051 3 -1
3.3033652 7.414876 0.35717362 3 -1
3.2931402 7.3879433 0.36194372 3 -1
3.2643657 7.3496304 0.37649244 3 -1
3.2616148 7.2925334 0.36423624 3 -1
3.2598109 7.2630014 0.36079496 3 -1
3.2266431 7.2617803 0.38397014 3 -1
3.2388394 7.2248888 0.38156968 3 -1
3.2273965 7.1867752 0.3803854 3 -1
3.2329135 7.1819115 0.39085209 3 -1
3.2101812 7.1421423 0.39282465 3 -1
3.2104142 7.1129928 0.38907439 3 -1
3.2087691 7.0951285 0.38317305 3 -1
3.2022495 7.0746536 0.3930133 3 -1
3.201725 7.0479817 0.41417611 3 -1
3.1917934 7.0010362 0.40132374 3 -1
3.1967564 7.0070434 0.38106251 3 -1
3.2127781 6.9713955 0.40369362 3 -1
3.2012506 6.9397893 0.3859666 3 -1
3.2072191 6.9222012 0.37202638 3 -1
3.2159681 6.8936515 0.38335818 3 -1
3.2124658 6.8809757 0.39919072 3 -1
3.2192459 6.869514 0.36653614 3 -1
3.2067871 6.8158274 0.39788848 3 -1
3.214654 6.8215318 0.39061648 3 -1
3.233099 6.7774925 0.3894574 3 -1
3.2148438 6.7522945 0.37621915 3 -1
3.2419906 6.7177191 0.37194359 3 -1
3.2428179 6.7045813 0.37207401 3 -1
3.2658043 6.6681085 0.37021261 3 -1
3.2670348 6.6353979 0.37132901 3 -1
3.3004155 6.5949721 0.37147743 3 -1
3.2848988 6.5326872 0.37245935 3 -1
3.3270135 6.4852638 0.34725982 3 -1
3.3426962 6.4364958 0.37238681 3 -1
3.3853154 6.3829861 0.34650472 3 -1
3.4855714 6.2714801 0.34566325 3 -1
4.9483733 5.1304488 0.14081535 1 -1
4.9067411 5.0479217 0.13665599 1 -1
4.8448248 4.9772644 0.13807887 1 -1
4.7246294 4.9475384 0.15872532 1 -1
4.6217885 4.9580421 0.16019511 1 -1
4.4672775 4.9226761 0.15888795 1 -1
4.3775649 4.9125967 0.17186987 1 -1
4.279768 4.887619 0.16657329 1 -1
4.215445 4.8624573 0.16096228 1 -1
4.1346917 4.8112755 0.17203921 1 -1
4.0792861 4.7563267 0.16577733 1 -1
4.0128431 4.7128839 0.16906548 1 -1
3.9358497 4.6909175 0.1818817 1 -1
3.8629568 4.5965328 0.18111426 1 -1
3.8609796 4.5434484 0.16811112 1 -1
4.3092356 10.075173 0.16263953 2 -1
4.439043 10.073503 0.16991782 2 -1
4.5650139 10.077351 0.14793432 2 -1
4.6886716 10.063244 0.13234141 2 -1
4.8432417 10.055946 0.12198615 1 -1
4.9243264 9.9930191 0.15868041 1 -1
5.0146933 9.9095201 0.15115276 1 -1
5.1104608 9.8044128 0.14095914 1 -1
5.1843257 9.7336817 0.13716179 1 -1
5.2578793 9.6604919 0.13057283 1 -1
5.3548269 9.5759802 0.142095 1 -1
5.4212198 9.4910517 0.12180823 1 -1
5.4919162 9.3871784 0.12741968 1 -1
5.5606499 9.2874165 0.14775312 1 -1
5.6320157 9.2026386 0.12293646 1 -1
3.4929695 7.6952648 0.37452406 3 -1
3.4180093 7.5889144 0.3511107 3 -1
3.3762732 7.5112615 0.37981296 3 -1
3.324585 7.459662 0.37685877 3 -1
3.3261461 7.4199247 0.39047581 3 -1
3.2916379 7.374331 0.39911819 3 -1
3.2782338 7.3611307 0.40152615 3 -1
3.2761693 7.3125348 0.3954615 3 -1
3.2665157 7.281806 0.40569156 3 -1
3.2380152 7.2348952 0.41661733 3 -1
3.2452171 7.2294846 0.40404201 3 -1
3.2415628 7.178174 0.38338643 3 -1
3.2201493 7.1686144 0.41362387 3 -1
3.236516 7.1357341 0.41191167 3 -1
3.2028673 7.118145 0.39824712 3 -1
3.2143674 7.0639138 0.40054065 3 -1
3.2143459 7.0601668 0.40982413 3 -1
3.2095616 7.017808 0.39529991 3 -1
3.20837 7.0413756 0.41020191 3 -1
3.1861675 6.99016 0.39644891 3 -1
3.1817763 6.9724803 0.39842403 3 -1
3.1974378 6.9340158 0.41203392 3 -1
3.215416 6.9224625 0.42029601 3 -1
3.2057009 6.9113445 0.41881365 3 -1
3.2068372 6.8855534 0.40462029 3 -1
3.2204018 6.847312 0.41101199 3 -1
3.2001498 6.8385992 0.41048437 3 -1
3.2083552 6.8040361 0.40287077 3 -1
3.2264588 6.772121 0.41213065 3 -1
3.2357574 6.7514629 0.41295236 3 -1
3.2327023 6.7434297 0.38143522 3 -1
3.2429152 6.7077804 0.38342452 3 -1
3.2573581 6.6644058 0.38995981 3 -1
3.2634172 6.6336875 0.39693272 3 -1
3.3063917 6.5896745 0.39204639 3 -1
3.2766256 6.5527291 0.38261884 3 -1
3.325151 6.5023069 0.41142166 3 -1
3.3438425 6.4579282 0.37363827 3 -1
3.3902264 6.3764629 0.3613528 3 -1
3.4764843 6.2750578 0.36678445 3 -1
5.5283909 4.7197742 0.15264219 1 -1
5.4431248 4.62675 0.14381239 1 -1
4.9424405 4.9145546 0.21079278 3 -1
4.7321472 4.9623671 0.22785532 3 -1
4.5819974 4.9340143 0.23773952 3 -1
4.4640064 4.9431553 0.22283784 3 -1
4.3703485 4.9310055 0.23726109 3 -1
4.2820449 4.8842621 0.24485686 3 -1
4.2232795 4.8410168 0.24557117 3 -1
4.1386294 4.8129091 0.2404893 3 -1
4.0532246 4.7681208 0.23466472 3 -1
3.9961381 4.7046618 0.22551313 3 -1
3.9355917 4.6428871 0.22494847 3 -1
3.8917708 4.5842142 0.23575987 3 -1
3.8579192 4.548131 0.22667663 3 -1
4.2976613 10.048227 0.22935456 2 -1
4.4367161 10.058279 0.2252557 2 -1
4.557189 10.07556 0.22197893 2 -1
4.692872 10.05662 0.22924726 2 -1
4.8493605 10.055511 0.21902671 2 -1
4.9883118 10.068457 0.21715662 2 -1
5.1581669 10.043955 0.22864451 2 -1
5.3055544 10.045214 0.2109859 2 -1
5.5050268 10.047635 0.21629402 2 -1
5.66681 10.038741 0.19714081 2 -1
5.8663697 10.050619 0.16301858 2 -1
6.1020813 10.044773 0.17395097 2 -1
6.3188725 10.012437 0.17579553 2 -1
6.4794378 9.9712915 0.16216454 1 -1
6.5722466 9.8433304 0.16795465 1 -1
3.5016165 7.6703472 0.39303887 3 -1
3.4318032 7.5893188 0.38748908 3 -1
3.3773236 7.5358534 0.39692038 3 -1
3.3160658 7.4772129 0.40335745 3 -1
3.3249421 7.4139009 0.39700198 3 -1
3.2910111 7.3946185 0.40543419 3 -1
3.2886863 7.3262281 0.40901703 3 -1
3.2567482 7.3049111 0.41369361 3 -1
3.2586091 7.2797132 0.41633999 3 -1
3.2310472 7.241199 0.41683102 3 -1
3.2192082 7.2182403 0.40246105 3 -1
3.2109923 7.1947832 0.42589843 3 -1
3.2291198 7.1505246 0.41507155 3 -1
3.2277861 7.1210532 0.42723209 3 -1
3.2169313 7.1119981 0.42378289 3 -1
3.1925111 7.0811424 0.4227283 3 -1
3.2077322 7.0514302 0.3996926 3 -1
3.1877918 7.0545259 0.42435479 3 -1
3.2226751 7.0108147 0.4260869 3 -1
3.1968412 6.9957561 0.43584937 3 -1
3.2062855 6.9701223 0.40177613 3 -1
3.207334 6.949789 0.43324202 3 -1
3.1963432 6.9443684 0.4192732 3 -1
3.20995 6.8926997 0.42446846 3 -1
3.2146664 6.8915401 0.4178834 3 -1
3.2119062 6.8522625 0.42600989 3 -1
3.2101493 6.8403296 0.42704082 3 -1
3.2140989 6.8038545 0.42134345 3 -1
3.2147398 6.7761574 0.437123 3 -1
3.2334731 6.7601728 0.41496938 3 -1
3.2494507 6.7418218 0.42862165 3 -1
3.2495165 6.7065392 0.40283042 3 -1
3.2489815 6.6729341 0.39816725 3 -1
3.2817926 6.6355133 0.41546869 3 -1
3.2754579 6.5937963 0.41008246 3 -1
3.2828708 6.5435114 0.41441667 3 -1
3.3335876 6.5152531 0.41026366 3 -1
3.3569341 6.4493961 0.40357876 3 -1
3.37046 6.3745365 0.39161921 3 -1
3.4664307 6.2727599 0.39399874 3 -1
6.3841066 4.0421042 0.15512317 1 -1
6.306097 3.9261928 0.14630902 1 -1
4.9280272 4.9136658 0.26393944 3 -1
4.7242155 4.9689021 0.27777851 3 -1
4.580863 4.935853 0.29417965 3 -1
4.491509 4.9489546 0.28141001 3 -1
4.3747416 4.9155378 0.28030246 3 -1
4.2984533 4.9017668 0.29487705 3 -1
4.2134852 4.8611989 0.28163815 3 -1
4.1233511 4.8133898 0.28214616 3 -1
4.0669556 4.7812066 0.28683093 3 -1
4.0044227 4.6972704 0.29506022 3 -1
3.9262238 4.6631646 0.29344088 3 -1
3.8905792 4.5812378 0.29612839 3 -1
3.855943 4.5259237 0.27544177 3 -1
4.3137574 10.061125 0.32778239 2 -1
4.4268274 10.070404 0.31128359 2 -1
4.554276 10.055338 0.30216706 2 -1
4.6805878 10.06082 0.30336487 2 -1
4.8247414 10.049919 0.30538347 2 -1
5.0016909 10.043258 0.30794215 2 -1
5.1241751 10.042122 0.28649259 2 -1
5.3164043 10.041673 0.2817767 2 -1
5.4912786 10.052092 0.29061973 2 -1
5.6740742 10.053507 0.29230908 2 -1
5.8794503 10.04073 0.28418255 2 -1
6.0948305 10.023987 0.29041499 2 -1
6.319705 10.027641 0.26351839 2 -1
6.5587139 10.010697 0.26173109 2 -1
6.8164597 9.9846029 0.24254544 2 -1
3.5228066 7.6789737 0.42164493 3 -1
3.4160662 7.5929689 0.42571241 3 -1
3.3476138 7.5061593 0.42646033 3 -1
3.3214068 7.4462824 0.4323681 3 -1
3.3149939 7.411922 0.43414176 3 -1
3.2988944 7.3843064 0.4248659 3 -1
3.2689226 7.3455029 0.44165653 3 -1
3.269002 7.3136063 0.43298018 3 -1
3.2646854 7.2650695 0.4334926 3 -1
3.2302976 7.2360492 0.44153643 3 -1
3.2259722 7.2119308 0.45770037 3 -1
3.2355294 7.198976 0.43637019 3 -1
3.2128015 7.1715822 0.44241166 3 -1
3.2154541 7.1492667 0.43502504 3 -1
3.2197533 7.1037016 0.44975793 3 -1
3.2020011 7.0783434 0.4555729 3 -1
3.1942029 7.0592823 0.4362222 3 -1
3.2060192 7.0462708 0.44266421 3 -1
3.2002044 7.0079522 0.42438716 3 -1
3.1897683 7.0024881 0.44238919 3 -1
3.2059445 6.9701085 0.43119979 3 -1
3.1975594 6.9550505 0.4649626 3 -1
3.2025194 6.9446859 0.42972547 3 -1
3.2120471 6.9131393 0.4292478 3 -1
3.2183681 6.8749709 0.43845469 3 -1
3.1969736 6.8481998 0.43368846 3 -1
3.2103477 6.8362074 0.4359796 3 -1
3.2247577 6.7996182 0.41791314 3 -1
3.2352381 6.7792749 0.42509305 3 -1
3.2296133 6.7443857 0.42246568 3 -1
3.2342811 6.7257876 0.42704511 3 -1
3.2385285 6.6965532 0.43976229 3 -1
3.2546582 6.648941 0.43596768 3 -1
3.2583275 6.6374416 0.41935211 3 -1
3.2950439 6.6031837 0.41334391 3 -1
3.2895551 6.5550699 0.42843419 3 -1
3.3345737 6.4963713 0.43448091 3 -1
3.3414626 6.4340501 0.42892253 3 -1
3.3855298 6.3719501 0.42536736 3 -1
3.4978669 6.2761927 0.43055665 3 -1
7.0283794 3.5599391 0.21965986 2 -1
7.0380135 3.3557396 0.21402049 2 -1
4.9016275 4.9030886 0.34474927 3 -1
4.7259836 4.9524155 0.33792976 3 -1
4.590744 4.955689 0.35413295 3 -1
4.4804626 4.9523945 0.34245074 3 -1
4.3659277 4.9338427 0.36317605 3 -1
4.2919636 4.8845997 0.36164218 3 -1
4.2100573 4.8508215 0.3386544 3 -1
4.1306891 4.8139772 0.36654228 3 -1
4.0687628 4.7702913 0.35058278 3 -1
3.9936399 4.7243047 0.35009706 3 -1
3.9247074 4.6589079 0.35059869 3 -1
3.8856993 4.6080337 0.35701638 3 -1
3.867795 4.5448608 0.34998506 3 -1
4.2801747 10.049805 0.40085888 2 -1
4.4132538 10.057459 0.38364667 2 -1
4.5603256 10.063438 0.37773943 2 -1
4.6905594 10.036129 0.39089805 2 -1
4.8475542 10.039228 0.38054663 2 -1
4.9832335 10.044245 0.380615 2 -1
5.1475124 10.043949 0.39347994 2 -1
5.3235025 10.049818 0.38462722 2 -1
5.5051517 10.035646 0.40327466 2 -1
5.6792812 10.047865 0.38307798 2 -1
5.8800793 10.0439 0.39425784 2 -1
6.0868278 10.038301 0.37570196 2 -1
6.3139172 10.041389 0.37431449 2 -1
6.5721607 10.031137 0.36382771 2 -1
6.8249245 10.020798 0.36851853 2 -1
3.5101929 7.6858468 0.44257468 3 -1
3.4078231 7.5887432 0.45260233 3 -1
3.3587322 7.5100503 0.43761092 3 -1
3.3433733 7.4675627 0.44210947 3 -1
3.3196368 7.4164858 0.45796454 3 -1
3.2985024 7.381918 0.45862347 3 -1
3.2680407 7.3534975 0.46175092 3 -1
3.2715449 7.2996111 0.44215292 3 -1
3.2471218 7.2791009 0.4467411 3 -1
3.2465973 7.2488122 0.45765895 3 -1
3.2349172 7.2019024 0.45122451 3 -1
3.2313385 7.1689711 0.44521528 3 -1
3.2158384 7.1541972 0.4439463 3 -1
3.2039993 7.1345115 0.428931 3 -1
3.2275198 7.1002517 0.46149719 3 -1
3.196332 7.0792274 0.44232839 3 -1
3.2127852 7.069211 0.46500087 3 -1
3.2143462 7.0462627 0.46127462 3 -1
3.1944199 7.0282249 0.45230061 3 -1
3.1859765 6.9932303 0.45232207 3 -1
3.197401 6.9677143 0.46102726 3 -1
3.1924543 6.961472 0.45983136 3 -1
3.1975961 6.931273 0.45327318 3 -1
3.2027817 6.9087477 0.43529445 3 -1
3.2016912 6.8837357 0.45767325 3 -1
3.2266302 6.8770065 0.44492412 3 -1
3.2057667 6.8275218 0.45415372 3 -1
3.1932502 6.8050647 0.46314025 3 -1
3.2185388 6.7745175 0.44856924 3 -1
3.225193 6.7509432 0.44444996 3 -1
3.2450755 6.7356949 0.45247382 3 -1
3.2503819 6.6908288 0.44226348 3 -1
3.2385426 6.6623068 0.46333051 3 -1
3.2621312 6.6378403 0.4466759 3 -1
3.2827473 6.5986795 0.45594627 3 -1
3.2954955 6.5569067 0.43974602 3 -1
3.3208125 6.4996414 0.44611502 3 -1
3.3608313 6.4472394 0.44888729 3 -1
3.3886836 6.3584552 0.45954299 3 -1
3.4881139 6.263176 0.43146366 3 -1
7.0232286 3.5654488 0.3453891 2 -1
7.0395021 3.359 0.35398513 2 -1
4.9298306 4.9310513 0.39776486 3 -1
4.7367926 4.9532537 0.40523404 3 -1
4.5763721 4.9498887 0.39465785 3 -1
4.4771929 4.9654312 0.40044814 3 -1
4.3826113 4.8931832 0.4218322 3 -1
4.3011298 4.8913641 0.41091686 3 -1
4.2303848 4.8542337 0.39440477 3 -1
4.1539683 4.8223825 0.41405898 3 -1
4.0687528 4.7624483 0.4064877 3 -1
3.9929881 4.7275038 0.40072471 3 -1
3.9405012 4.648242 0.42179692 3 -1
3.8792963 4.5996423 0.39585918 3 -1
3.877059 4.5426593 0.39977252 3 -1
4.3075209 10.05941 0.47290629 2 -1
4.427238 10.053123 0.47813231 2 -1
4.5643721 10.053334 0.45752877 2 -1
4.6932807 10.062532 0.48659724 2 -1
4.829504 10.056153 0.46169013 2 -1
4.9832449 10.03407 0.49255383 2 -1
5.1564178 10.052607 0.480039 2 -1
5.3180952 10.047386 0.4726916 2 -1
5.4968753 10.027851 0.46528494 2 -1
5.6921148 10.051968 0.48291034 2 -1
5.8779793 10.034937 0.47902083 2 -1
6.0978479 10.023438 0.48714131 2 -1
6.3298759 10.023286 0.47716409 2 -1
6.573267 10.021055 0.46576971 2 -1
6.8361855 10.011147 0.46694452 2 -1
3.5072975 7.6590567 0.46267307 3 -1
3.4098248 7.5807996 0.46709341 3 -1
3.3742013 7.5159206 0.45411837 3 -1
3.3158367 7.4449472 0.47912621 3 -1
3.3083162 7.4097495 0.46444452 3 -1
3.2804904 7.3820977 0.45838356 3 -1
3.2755983 7.3220696 0.48545164 3 -1
3.2721958 7.2990499 0.47744972 3 -1
3.2526691 7.2638102 0.47196943 3 -1
3.2351511 7.2603822 0.47968459 3 -1
3.2276366 7.2169781 0.48753351 3 -1
3.2207694 7.1993809 0.47756076 3 -1
3.2340446 7.1645713 0.47135139 3 -1
3.2190819 7.154036 0.48043722 3 -1
3.1970429 7.1223392 0.47040725 3 -1
3.2243161 7.0878758 0.47735876 3 -1
3.2057095 7.0748119 0.46831709 3 -1
3.1849046 7.054584 0.49349356 3 -1
3.2068443 7.0132575 0.4715417 3 -1
3.1957507 7.0034437 0.45647681 3 -1
3.2012682 6.9677944 0.47308367 3 -1
3.2059026 6.945909 0.47054309 3 -1
3.2101202 6.9389915 0.46120799 3 -1
3.2075973 6.9042554 0.48431563 3 -1
3.2026134 6.8791623 0.48072696 3 -1
3.2030759 6.8662024 0.47417074 3 -1
3.2008691 6.8341613 0.45889413 3 -1
3.2204938 6.8124571 0.48240817 3 -1
3.2076168 6.7773886 0.45618892 3 -1
3.213717 6.7596931 0.48059219 3 -1
3.2470875 6.7359681 0.44968557 3 -1
3.2355075 6.6905475 0.4963553 3 -1
3.2414336 6.6783948 0.47065723 3 -1
3.2564781 6.6211667 0.47026825 3 -1
3.28371 6.5984297 0.49006295 3 -1
3.2812233 6.531436 0.45512456 3 -1
3.3057523 6.5026503 0.47580928 3 -1
3.3523307 6.4449487 0.47408801 3 -1
3.3900561 6.3588991 0.45169437 3 -1
3.4904766 6.281074 0.47449589 3 -1
7.0514946 3.5666566 0.4577229 2 -1
7.0284662 3.33606 0.44663626 2 -1
4.9099932 4.9169092 0.46194094 3 -1
4.7281523 4.951642 0.46391255 3 -1
4.5940332 4.9520988 0.47353292 3 -1
4.4571533 4.9348536 0.46371347 3 -1
4.3838973 4.9433036 0.46537554 3 -1
4.2734642 4.8823061 0.47537512 3 -1
4.2151384 4.8499813 0.46336269 3 -1
4.1315126 4.8162498 0.45667166 3 -1
4.0539374 4.7613058 0.4765175 3 -1
3.9951653 4.7397804 0.46268946 3 -1
3.9273863 4.6554365 0.47741705 3 -1
3.8843074 4.5840263 0.45165676 3 -1
3.8619676 4.5565987 0.45922649 3 -1
4.2847257 10.066545 0.54924613 2 -1
4.4056802 10.078124 0.55325031 2 -1
4.5660567 10.068336 0.53695619 2 -1
4.7086487 10.060431 0.55167133 2 -1
4.8424883 10.051112 0.5567078 2 -1
4.9755569 10.050645 0.56016719 2 -1
5.137373 10.05061 0.56016207 2 -1
5.3064346 10.031742 0.57830435 2 -1
5.4917221 10.042267 0.53751117 2 -1
5.6696377 10.05031 0.57216233 2 -1
5.8760252 10.035276 0.57290703 2 -1
6.1005378 10.035727 0.57023871 2 -1
6.3297062 10.040354 0.55628526 2 -1
6.5652475 10.037245 0.58213866 2 -1
6.8069916 10.026001 0.6030165 2 -1
3.5113811 7.6837382 0.50325781 3 -1
3.4204295 7.5844526 0.50893283 3 -1
3.3623853 7.5262747 0.48372197 3 -1
3.3288536 7.4655733 0.48415756 3 -1
3.3088312 7.4085951 0.50482643 3 -1
3.2834454 7.3655972 0.49004364 3 -1
3.2884893 7.3418074 0.48622829 3 -1
3.2603993 7.3008695 0.47929794 3 -1
3.2623668 7.2678366 0.48285913 3 -1
3.2334657 7.2434516 0.4696039 3 -1
3.2358947 7.2061815 0.47040731 3 -1
3.2331066 7.2022886 0.51261234 3 -1
3.2263021 7.1504335 0.48621428 3 -1
3.213372 7.147068 0.5021472 3 -1
3.2063897 7.1023045 0.48922437 3 -1
3.206234 7.0798278 0.4913004 3 -1
3.2088881 7.0818706 0.48725086 3 -1
3.2022266 7.0393944 0.48379594 3 -1
3.1982803 7.0077548 0.48844987 3 -1
3.1828218 6.9794211 0.48694777 3 -1
3.1872115 6.9754605 0.47873902 3 -1
3.187336 6.9368901 0.5001995 3 -1
3.2045281 6.9364839 0.48786116 3 -1
3.222554 6.899447 0.49536055 3 -1
3.2097638 6.8845725 0.48431325 3 -1
3.217438 6.8674431 0.47842938 3 -1
3.222765 6.8405166 0.47645825 3 -1
3.2115335 6.8268251 0.48014289 3 -1
3.2254791 6.7814298 0.48731095 3 -1
3.2230115 6.7563262 0.48270619 3 -1
3.2296348 6.7325139 0.50149786 3 -1
3.2231574 6.695405 0.49895579 3 -1
3.2557178 6.6649671 0.4885506 3 -1
3.2799802 6.6459866 0.48951751 3 -1
3.2661047 6.5898752 0.50566119 3 -1
3.2992868 6.543447 0.47950041 3 -1
3.3385024 6.5025315 0.48288482 3 -1
3.3467107 6.4393482 0.49132758 3 -1
3.3871346 6.3961973 0.49587053 3 -1
3.4625211 6.2784448 0.48606968 3 -1
7.0406199 3.5869374 0.58970046 2 -1
7.0353851 3.3691151 0.60324389 2 -1
4.9060383 4.9285231 0.54542738 3 -1
4.7300749 4.9601464 0.53746754 3 -1
4.5821714 4.9625592 0.53214693 3 -1
4.4720216 4.9415331 0.5125562 3 -1
4.3771181 4.9139767 0.54016137 3 -1
4.2888923 4.8979516 0.5310272 3 -1
4.1915283 4.8556252 0.53650045 3 -1
4.1447649 4.8148222 0.52553415 3 -1
4.0618038 4.7586374 0.53926808 3 -1
4.006413 4.7155805 0.53651559 3 -1
3.9301353 4.6500921 0.5321641 3 -1
3.8833737 4.5903368 0.54146457 3 -1
3.8815479 4.5610089 0.53094643 3 -1
4.283474 10.063968 0.6454097 2 -1
4.4347992 10.038112 0.62268102 2 -1
4.5609627 10.05633 0.63088053 2 -1
4.6972408 10.059198 0.6410867 2 -1
4.8417988 10.052696 0.64582998 2 -1
4.996882 10.071608 0.63776755 2 -1
5.142333 10.045424 0.6359359 2 -1
5.3135595 10.03791 0.64444703 2 -1
5.5024281 10.029861 0.6623981 2 -1
5.6937284 10.032988 0.67011178 2 -1
5.8783183 10.051405 0.674007 2 -1
6.0851955 10.0393 0.6726377 2 -1
6.314744 10.03018 0.68084025 2 -1
6.5675259 9.9948397 0.70720917 2 -1
6.8247442 10.021688 0.71603745 2 -1
3.5020812 7.6823225 0.5353018 3 -1
3.4179907 7.5937467 0.51936501 3 -1
3.3540163 7.5232515 0.50599653 3 -1
3.3266671 7.4593501 0.50838733 3 -1
3.3101306 7.418385 0.49561548 3 -1
3.2933331 7.3794193 0.52050996 3 -1
3.3047032 7.3297405 0.50955033 3 -1
3.2693944 7.2819419 0.50814986 3 -1
3.237253 7.2733531 0.49923521 3 -1
3.2582269 7.2567034 0.51392663 3 -1
3.2440875 7.2183537 0.51350176 3 -1
3.2252617 7.1899185 0.52937996 3 -1
3.2229116 7.1458483 0.51507449 3 -1
3.2229018 7.136672 0.50512892 3 -1
3.2050977 7.1147504 0.50495702 3 -1
3.2182999 7.0956697 0.5045554 3 -1
3.2060285 7.0559802 0.50427544 3 -1
3.2020173 7.0573244 0.47894585 3 -1
3.1981454 7.0377173 0.51110607 3 -1
3.1897674 6.9984932 0.52146631 3 -1
3.188365 6.9889069 0.49284655 3 -1
3.2067828 6.9469428 0.4961707 3 -1
3.2111106 6.9188428 0.51543075 3 -1
3.2070241 6.8852849 0.51801044 3 -1
3.20172 6.8763971 0.51626295 3 -1
3.2239075 6.8459935 0.52332771 3 -1
3.2187729 6.8277264 0.51266795 3 -1
3.224968 6.8070488 0.51259953 3 -1
3.2255929 6.7622786 0.49231797 3 -1
3.2474685 6.7483463 0.49675816 3 -1
3.2396312 6.7217131 0.50252843 3 -1
3.2347515 6.694695 0.50365919 3 -1
3.2436116 6.6715145 0.49864262 3 -1
3.2593646 6.6329494 0.4992758 3 -1
3.2729435 6.601099 0.50104254 3 -1
3.2971096 6.5614853 0.51164752 3 -1
3.3190246 6.4991283 0.50902438 3 -1
3.3481212 6.4466844 0.5210644 3 -1
3.3948603 6.3786097 0.52153862 3 -1
3.4774828 6.2745171 0.51426131 3 -1
7.0362425 3.5865412 0.72312295 2 -1
7.0145168 3.3469439 0.70137799 2 -1
4.8931866 4.9047728 0.60893559 3 -1
4.7341099 4.9618673 0.60257381 3 -1
4.5911622 4.9477515 0.60217148 3 -1
4.4683876 4.9320679 0.58214468 3 -1
4.3745518 4.9219923 0.59431112 3 -1
4.2928276 4.8964005 0.57857734 3 -1
4.2159495 4.8445187 0.60203803 3 -1
4.1555357 4.8304968 0.58422619 3 -1
4.0593176 4.7611542 0.59536695 3 -1
4.0027623 4.7248621 0.5872196 3 -1
3.9229474 4.6598616 0.57227612 3 -1
3.8961477 4.5892272 0.58374703 3 -1
3.864893 4.5326843 0.58905566 3 -1
4.2928104 10.061164 0.68946421 2 -1
4.4321356 10.076324 0.69703591 2 -1
4.5360508 10.052622 0.71170491 2 -1
4.6959476 10.068192 0.71894246 2 -1
4.8477049 10.055876 0.71561384 2 -1
5.004971 10.059216 0.74385452 2 -1
5.1487193 10.049665 0.73416543 2 -1
5.3050075 10.053513 0.74575901 2 -1
5.4923606 10.028352 0.74985361 2 -1
5.682416 10.047142 0.77619207 2 -1
5.8738098 10.035485 0.75855541 2 -1
6.1051264 10.025848 0.78831649 2 -1
6.3218641 10.019119 0.768116 2 -1
6.5640211 10.016705 0.80683947 2 -1
6.8594151 10.024422 0.81638372 2 -1
3.4883842 7.6774764 0.55867547 3 -1
3.4077404 7.597414 0.5543716 3 -1
3.3682451 7.5190434 0.52643472 3 -1
3.3336134 7.4593048 0.54013979 3 -1
3.3082433 7.4052701 0.50630921 3 -1
3.2842751 7.3951616 0.52111775 3 -1
3.2656417 7.3359733 0.53096491 3 -1
3.2572203 7.3086057 0.52514702 3 -1
3.2393425 7.2795787 0.51285201 3 -1
3.2567654 7.2305369 0.51002538 3 -1
3.2504511 7.2339354 0.52187198 3 -1
3.2385368 7.1928029 0.50868708 3 -1
3.2260561 7.173646 0.49967331 3 -1
3.2162867 7.1279202 0.51076943 3 -1
3.2349062 7.1074982 0.52497673 3 -1
3.2044704 7.0969729 0.50162303 3 -1
3.2201819 7.072082 0.53581661 3 -1
3.2185395 7.0282969 0.52000856 3 -1
3.1990469 7.0170989 0.52190632 3 -1
3.2074714 6.9924603 0.51152629 3 -1
3.1965384 6.9650826 0.52771282 3 -1
3.1904769 6.9488692 0.51783293 3 -1
3.2094798 6.9220886 0.50694704 3 -1
3.2269576 6.9034743 0.51792943 3 -1
3.2076221 6.8811717 0.5088554 3 -1
3.1994834 6.8722458 0.52259845 3 -1
3.1976817 6.8191056 0.52674413 3 -1
3.2219057 6.8126578 0.53317446 3 -1
3.2268214 6.7743955 0.52124643 3 -1
3.2411423 6.7369146 0.52576405 3 -1
3.2269726 6.7274942 0.52672189 3 -1
3.2367597 6.6809735 0.53991258 3 -1
3.2351041 6.6611309 0.52716863 3 -1
3.2657361 6.6165171 0.53776908 3 -1
3.2641783 6.599308 0.54727066 3 -1
3.2725809 6.5434217 0.53716856 3 -1
3.3096671 6.4884801 0.52252966 3 -1
3.356904 6.4501944 0.54327571 3 -1
3.3809781 6.357296 0.54147661 3 -1
3.4716625 6.2815928 0.55263466 3 -1
7.0462742 3.5805461 0.8402766 2 -1
7.0216436 3.3646026 0.8523674 2 -1
4.9110985 4.9219522 0.68610394 3 -1
4.7241664 4.9435024 0.6722399 3 -1
4.5815659 4.9528923 0.65633047 3 -1
4.4699078 4.9351068 0.65293944 3 -1
4.390574 4.9290624 0.64199615 3 -1
4.2832465 4.8853135 0.63887674 3 -1
4.1979189 4.8750629 0.65888739 3 -1
4.130383 4.8144836 0.65044808 3 -1
4.0427976 4.7756357 0.6478278 3 -1
3.9929252 4.7177601 0.65101397 3 -1
3.9361124 4.6617222 0.65358329 3 -1
3.8728142 4.5840006 0.64829361 3 -1
3.8586264 4.5518413 0.66712391 3 -1
4.2829657 10.05929 0.77642041 2 -1
4.4226294 10.042444 0.79170763 2 -1
4.5640917 10.061978 0.7875942 2 -1
4.7037296 10.062908 0.79409999 2 -1
4.834239 10.068604 0.81590712 2 -1
4.98528 10.061861 0.8070789 2 -1
5.154573 10.047832 0.81473416 2 -1
5.3116417 10.0473 0.82798576 2 -1
5.4859185 10.030409 0.85184956 2 -1
5.6816669 10.054759 0.85477209 2 -1
5.8884687 10.045821 0.87197053 2 -1
6.0856905 10.033442 0.87418348 2 -1
6.3174067 10.025728 0.90547287 2 -1
6.5486336 10.018378 0.91688502 2 -1
6.8317976 10.008177 0.93673313 2 -1
3.5183911 7.6732626 0.56571585 3 -1
3.3957071 7.5877533 0.56435955 3 -1
3.3574169 7.5240254 0.56307775 3 -1
3.336473 7.4687753 0.56288016 3 -1
3.3023143 7.4299183 0.55775052 3 -1
3.2969139 7.3833613 0.52866966 3 -1
3.2589927 7.3501987 0.56512302 3 -1
3.2624583 7.3153615 0.54298252 3 -1
3.2559505 7.2800961 0.53316951 3 -1
3.2491589 7.2484703 0.54609126 3 -1
3.2414532 7.2187834 0.54479104 3 -1
3.2276094 7.1969624 0.5661068 3 -1
3.229362 7.1608624 0.5355866 3 -1
3.2020397 7.1427317 0.52931237 3 -1
3.2133412 7.1155977 0.54036498 3 -1
3.2081046 7.0800638 0.54313236 3 -1
3.2029076 7.064095 0.53522921 3 -1
3.2200406 7.0514941 0.53437847 3 -1
3.2040043 7.019609 0.52681339 3 -1
3.1887822 6.9925094 0.55364776 3 -1
3.196342 6.9829783 0.51765603 3 -1
3.2026224 6.9453592 0.53739035 3 -1
3.1979437 6.9346428 0.52550882 3 -1
3.1929808 6.9199905 0.56302428 3 -1
3.2096796 6.8678718 0.53498673 3 -1
3.2077694 6.8630605 0.53942662 3 -1
3.2091727 6.8487892 0.52801484 3 -1
3.200706 6.8154411 0.51489079 3 -1
3.2237906 6.7590537 0.54930556 3 -1
3.2196026 6.7538047 0.53269827 3 -1
3.2327156 6.7363586 0.53969461 3 -1
3.2280412 6.6983175 0.53990942 3 -1
3.241981 6.6543288 0.54417098 3 -1
3.2544279 6.6148758 0.55676627 3 -1
3.2687562 6.5693026 0.55162477 3 -1
3.2936091 6.5559587 0.5280726 3 -1
3.3007584 6.5047002 0.55337763 3 -1
3.3472056 6.443728 0.56604135 3 -1
3.3884492 6.3836555 0.57920641 3 -1
3.4720592 6.2729287 0.57201064 3 -1
7.0388794 3.5902371 0.95007551 2 -1
7.0149994 3.3471937 0.96631622 2 -1
4.9095964 4.9078569 0.74587601 3 -1
4.7212796 4.9664254 0.73433948 3 -1
4.5868788 4.9514647 0.72373152 3 -1
4.4755487 4.9535341 0.68593067 3 -1
4.3924532 4.9077168 0.69729608 3 -1
4.290431 4.8952026 0.69689924 3 -1
4.1972923 4.8680167 0.7205317 3 -1
4.1369042 4.8126521 0.71752238 3 -1
4.0665731 4.7779312 0.70039463 3 -1
3.9914989 4.7122183 0.70659631 3 -1
3.9403863 4.6476517 0.69464076 3 -1
3.8899379 4.5814466 0.71864045 3 -1
3.8530612 4.534112 0.71257871 3 -1
4.3062921 10.053457 0.85718572 2 -1
4.4310651 10.058445 0.86703622 2 -1
4.5592184 10.044561 0.88237894 2 -1
4.6969347 10.050704 0.88307589 2 -1
4.8253732 10.055989 0.89978683 2 -1
4.9814692 10.030594 0.90629792 2 -1
5.1482363 10.048518 0.910725 2 -1
5.3119006 10.06458 0.91709828 2 -1
5.4796219 10.043797 0.91390944 2 -1
5.6641145 10.032938 0.95210457 2 -1
5.8737645 10.02536 0.97093964 2 -1
6.1076012 10.031597 0.96513677 2 -1
6.3255844 10.035633 0.97913313 2 -1
6.568161 10.024288 1.0162072 2 -1
6.8169994 10.023955 1.0582004 2 -1
3.508688 7.6717291 0.60773546 3 -1
3.4121218 7.5814843 0.60284901 3 -1
3.3762534 7.5216293 0.58390772 3 -1
3.3320918 7.4545989 0.58302045 3 -1
3.3250003 7.4173727 0.56228739 3 -1
3.2787507 7.3828049 0.54016095 3 -1
3.2722056 7.3328547 0.55351901 3 -1
3.2619433 7.3120317 0.57139599 3 -1
3.249754 7.2641287 0.56333625 3 -1
3.2554455 7.2528181 0.56119144 3 -1
3.2343891 7.2124171 0.5584991 3 -1
3.2284756 7.1671786 0.56632173 3 -1
3.2168808 7.1464801 0.56633413 3 -1
3.2082796 7.1456785 0.53401303 3 -1
3.2076602 7.1199965 0.54864562 3 -1
3.2039285 7.0775723 0.55123895 3 -1
3.1983638 7.0550427 0.56412184 3 -1
3.2120762 7.0359101 0.5320549 3 -1
3.2109971 7.0293722 0.55044121 3 -1
3.2135861 6.9969773 0.525325 3 -1
3.2103968 6.9780045 0.55382359 3 -1
3.1986613 6.9455681 0.55495012 3 -1
3.1898673 6.9307375 0.54920244 3 -1
3.2095795 6.9006486 0.58134824 3 -1
3.1977925 6.8726521 0.57380331 3 -1
3.2045901 6.8508854 0.55904865 3 -1
3.2109575 6.8382034 0.52600926 3 -1
3.2166758 6.8012905 0.55992991 3 -1
3.2154036 6.7790132 0.55781227 3 -1
3.2130077 6.7669935 0.56335837 3 -1
3.2334218 6.7201138 0.55149043 3 -1
3.2209473 6.7016621 0.5566867 3 -1
3.2394934 6.6528563 0.55092299 3 -1
3.2560525 6.6187119 0.56156313 3 -1
3.2765393 6.5939121 0.5541355 3 -1
3.2992263 6.5520792 0.5764966 3 -1
3.301939 6.5178528 0.57725596 3 -1
3.3338876 6.439476 0.59114027 3 -1
3.3836837 6.37253 0.59120756 3 -1
3.4872766 6.2841406 0.59692591 3 -1
7.0265493 3.589051 1.0913261 2 -1
7.0461607 3.3505025 1.1072549 2 -1
4.943552 4.9211092 0.80971026 3 -1
4.7108688 4.9452615 0.80201769 3 -1
4.5695229 4.9475822 0.80527663 3 -1
4.4868031 4.930233 0.78256059 3 -1
4.3851595 4.9374299 0.75852025 3 -1
4.2744913 4.8791676 0.77590209 3 -1
4.2136931 4.8584614 0.75438207 3 -1
4.1347809 4.8274589 0.77076066 3 -1
4.0684028 4.7725878 0.79247999 3 -1
3.993536 4.7117825 0.76211274 3 -1
3.9247475 4.6424246 0.75716192 3 -1
3.8704972 4.5899129 0.76675463 3 -1
3.8554249 4.523571 0.76906359 3 -1
4.3031998 10.064604 0.9309544 2 -1
4.4314923 10.048478 0.9273439 2 -1
4.5623226 10.05442 0.95163083 2 -1
4.6915541 10.050552 0.96078867 2 -1
4.8160849 10.050882 0.97290909 2 -1
4.9812293 10.039389 0.97673738 2 -1
5.131959 10.030821 0.98748255 2 -1
5.3122883 10.057312 1.0093025 2 -1
5.5014005 10.035992 1.0218787 2 -1
5.6832237 10.028795 1.0488398 2 -1
5.8602972 10.030779 1.0604385 2 -1
6.0833044 10.020558 1.0912077 2 -1
6.3099937 10.049625 1.1134412 2 -1
6.5525341 10.007999 1.1486526 2 -1
6.8230343 10.018079 1.1699574 2 -1
3.5174246 7.6903615 0.63268721 3 -1
3.4110365 7.5880785 0.61571121 3 -1
3.3767014 7.5233841 0.61101234 3 -1
3.3100758 7.4690576 0.59708476 3 -1
3.301554 7.4163184 0.59451997 3 -1
3.2956982 7.3573513 0.58883363 3 -1
3.2628965 7.3298645 0.57785225 3 -1
3.2676172 7.3006787 0.57641339 3 -1
3.2382827 7.2651911 0.57068443 3 -1
3.2519927 7.2497559 0.57847726 3 -1
3.2302518 7.2087369 0.59102768 3 -1
3.2267866 7.1803489 0.57816309 3 -1
3.2226689 7.1823964 0.57255089 3 -1
3.2051075 7.14186 0.57673025 3 -1
3.216156 7.09726 0.57134748 3 -1
3.2290175 7.0990028 0.5740118 3 -1
3.2046688 7.0639062 0.58115709 3 -1
3.2085042 7.0488019 0.55886406 3 -1
3.1978292 7.0290565 0.56017208 3 -1
3.1933923 7.0038481 0.54992133 3 -1
3.192111 6.9608397 0.57090139 3 -1
3.1869569 6.9474759 0.56468791 3 -1
3.210144 6.9211211 0.55969709 3 -1
3.2143779 6.9024043 0.56544411 3 -1
3.2060547 6.8856511 0.56371707 3 -1
3.2062495 6.8666997 0.55376071 3 -1
3.2053018 6.8498297 0.57908207 3 -1
3.2114916 6.815042 0.57709128 3 -1
3.2230306 6.7812333 0.57919353 3 -1
3.2241335 6.7432814 0.57526553 3 -1
3.2345448 6.7160668 0.58222318 3 -1
3.2242861 6.6678019 0.5752061 3 -1
3.2319007 6.6542139 0.58200985 3 -1
3.2476752 6.6254549 0.57611483 3 -1
3.2741165 6.57026 0.57358479 3 -1
3.2821231 6.555759 0.58496875 3 -1
3.3265514 6.5107517 0.60756958 3 -1
3.3504882 6.4565916 0.60403454 3 -1
3.3989673 6.3674169 0.62114346 3 -1
3.5025721 6.2780256 0.65463459 3 -1
7.0274467 3.5813816 1.2005768 2 -1
7.046073 3.3470659 1.2155199 2 -1
4.9082994 4.9234715 0.88873315 3 -1
4.7340784 4.9579582 0.86324888 3 -1
4.596096 4.9655676 0.85211909 3 -1
4.4627199 4.9617262 0.83898503 3 -1
4.386467 4.9270821 0.83099151 3 -1
4.2949638 4.894711 0.80742633 3 -1
4.2003326 4.8589716 0.82171702 3 -1
4.134099 4.8212466 0.81633306 3 -1
4.0681038 4.771945 0.80316055 3 -1
3.991014 4.719306 0.81075186 3 -1
3.9188256 4.6663771 0.83103651 3 -1
3.8782177 4.6047716 0.83019227 3 -1
3.8627968 4.5448961 0.83832479 3 -1
4.2992759 10.052176 1.0081555 2 -1
4.4306464 10.070564 1.0308661 2 -1
4.5574007 10.056536 1.0470326 2 -1
4.6809978 10.056025 1.0442815 2 -1
4.8202715 10.046521 1.0508628 2 -1
4.9860244 10.07514 1.0686066 2 -1
5.1476955 10.036884 1.0810331 2 -1
5.3095412 10.038728 1.1144381 2 -1
5.474762 10.032518 1.1280073 2 -1
5.6716166 10.042164 1.1347026 2 -1
5.8886843 10.027093 1.1622148 2 -1
6.0755529 10.011484 1.1849387 2 -1
6.3191471 10.029732 1.2019346 2 -1
6.5657635 10.018822 1.2428583 2 -1
6.8303204 10.010373 1.2725918 2 -1
3.5077653 7.6741753 0.67240977 3 -1
3.4123478 7.5706587 0.64559042 3 -1
3.3713665 7.513371 0.62022895 3 -1
3.3111997 7.4775176 0.61022419 3 -1
3.2985773 7.4213214 0.61684841 3 -1
3.2763405 7.3723364 0.59425527 3 -1
3.2683747 7.3350163 0.61604917 3 -1
3.2600079 7.3085122 0.5986166 3 -1
3.2400193 7.2784381 0.6021257 3 -1
3.233861 7.2422276 0.59279126 3 -1
3.2247467 7.2152152 0.59329593 3 -1
3.2231789 7.1719036 0.5890308 3 -1
3.2238255 7.1563873 0.58341539 3 -1
3.2059917 7.1244144 0.58471328 3 -1
3.2120595 7.1124454 0.57585591 3 -1
3.21806 7.0985575 0.57859462 3 -1
3.2089882 7.0663476 0.59293312 3 -1
3.2072597 7.054388 0.56137741 3 -1
3.193604 7.0161977 0.58809751 3 -1
3.215692 7.0014191 0.58158976 3 -1
3.2003341 6.9807315 0.57687861 3 -1
3.2034001 6.9329147 0.56595618 3 -1
3.1922529 6.9211054 0.58872831 3 -1
3.2011447 6.9124374 0.57238686 3 -1
3.18363 6.8689013 0.58881998 3 -1
3.2053604 6.845767 0.59435517 3 -1
3.2058859 6.8323936 0.57553011 3 -1
3.198597 6.8082857 0.59035951 3 -1
3.2260151 6.7872643 0.59673494 3 -1
3.2168765 6.7413411 0.58839113 3 -1
3.2208705 6.729867 0.59622318 3 -1
3.2366948 6.6913376 0.59645212 3 -1
3.2463832 6.6930094 0.59834921 3 -1
3.2393992 6.6132927 0.6106655 3 -1
3.2801571 6.5971193 0.59218442 3 -1
3.2972484 6.5534663 0.60690165 3 -1
3.2997737 6.4742684 0.60303479 3 -1
3.3361893 6.435842 0.62372428 3 -1
3.3935788 6.3806872 0.62301981 3 -1
3.4774151 6.2872519 0.6499176 3 -1
7.0405817 3.5862877 1.3272933 2 -1
7.0297508 3.3679218 1.3313192 2 -1
4.9224796 4.9220247 0.95052838 3 -1
4.733192 4.9603233 0.92699945 3 -1
4.5927949 4.9550323 0.92395008 3 -1
4.4692974 4.941618 0.89814317 3 -1
4.3772144 4.9193678 0.88982666 3 -1
4.2660899 4.8867044 0.88381898 3 -1
4.2111573 4.8548298 0.89191413 3 -1
4.1295528 4.8124628 0.90231049 3 -1
4.046627 4.7647743 0.88379216 3 -1
3.9927793 4.7256746 0.86930752 3 -1
3.9471025 4.6529651 0.87090582 3 -1
3.8636737 4.6105685 0.8873418 3 -1
3.8584485 4.5671835 0.9065876 3 -1
4.2997246 10.050674 1.1047193 2 -1
4.4071312 10.064688 1.0989927 2 -1
4.5500765 10.064919 1.1255945 2 -1
4.6844616 10.047139 1.1266594 2 -1
4.8556271 10.054115 1.1511303 2 -1
4.9813995 10.058207 1.1683172 2 -1
5.1374722 10.044796 1.1761315 2 -1
5.2955341 10.036304 1.1836572 2 -1
5.495965 10.062952 1.2102536 2 -1
5.6545095 10.047367 1.2439425 2 -1
5.8740854 10.025071 1.2697294 2 -1
6.0844984 10.038361 1.2800151 2 -1
6.3167267 10.027115 1.3170424 2 -1
6.5688982 10.014119 1.3550054 2 -1
6.8137178 10.005802 1.3791105 2 -1
3.501771 7.6778545 0.69009179 3 -1
3.42173 7.5731521 0.67239165 3 -1
3.3595424 7.5217366 0.64787197 3 -1
3.3222785 7.4592896 0.65050054 3 -1
3.3174682 7.4110212 0.61986887 3 -1
3.2953873 7.3835211 0.62779218 3 -1
3.2771695 7.3434811 0.62927246 3 -1
3.2803631 7.3004637 0.60670555 3 -1
3.2505083 7.2732654 0.62391281 3 -1
3.228632 7.2233624 0.61827004 3 -1
3.2320919 7.2350187 0.62162197 3 -1
3.2256689 7.1670761 0.59174448 3 -1
3.2162085 7.1717205 0.60748476 3 -1
3.2124653 7.1212459 0.60488427 3 -1
3.2240882 7.1152086 0.59459955 3 -1
3.216054 7.1038203 0.60076982 3 -1
3.2181268 7.0681224 0.61573213 3 -1
3.2026408 7.0423985 0.57962376 3 -1
3.2030029 7.0245175 0.60658002 3 -1
3.1780853 6.9870372 0.59632909 3 -1
3.2113662 6.9845409 0.58494753 3 -1
3.2078061 6.9486928 0.5966714 3 -1
3.1923394 6.9474273 0.60462576 3 -1
3.2011328 6.9048271 0.61289603 3 -1
3.1963277 6.8779716 0.58877069 3 -1
3.2046814 6.8564191 0.59800965 3 -1
3.1997316 6.8428011 0.59882402 3 -1
3.1999316 6.802043 0.60822701 3 -1
3.2307272 6.79741 0.60251039 3 -1
3.2192125 6.7658224 0.59637779 3 -1
3.2358665 6.7353668 0.61587805 3 -1
3.2231398 6.6916676 0.62809527 3 -1
3.2593489 6.6595831 0.62174201 3 -1
3.2621024 6.6186848 0.60099459 3 -1
3.2852972 6.6081352 0.62419808 3 -1
3.2968206 6.5368514 0.62814772 3 -1
3.3139195 6.5054708 0.64811736 3 -1
3.3456368 6.4470019 0.65828729 3 -1
3.3858714 6.3885832 0.66428459 3 -1
3.481503 6.2799067 0.68915999 3 -1
7.0249662 3.5817647 1.4555452 2 -1
7.0123491 3.3560283 1.4683762 2 -1
4.9019046 4.9106255 1.0253644 3 -1
4.7410612 4.9437809 0.983114 3 -1
4.596406 4.9499512 0.96921933 3 -1
4.4675241 4.9614744 0.95933223 3 -1
4.386363 4.9332619 0.97392094 3 -1
4.2909384 4.881916 0.93075919 3 -1
4.210063 4.8679752 0.97112203 3 -1
4.1287541 4.8032007 0.94752556 3 -1
4.0679908 4.7611694 0.95449781 3 -1
3.9907446 4.7199769 0.93913221 3 -1
3.9349136 4.6362662 0.96148461 3 -1
3.8561115 4.5976081 0.96089363 3 -1
3.8426852 4.5535016 0.9655388 3 -1
4.2830172 10.053628 1.1585212 2 -1
4.4197936 10.056544 1.1877588 2 -1
4.5566626 10.05776 1.1974435 2 -1
4.6893082 10.041843 1.1832323 2 -1
4.84342 10.038198 1.2263373 2 -1
4.9834061 10.030399 1.2595415 2 -1
5.1530781 10.043489 1.2554574 2 -1
5.2960391 10.037697 1.2949959 2 -1
5.5029783 10.035166 1.327551 2 -1
5.6655273 10.037073 1.3319004 2 -1
5.8769588 10.03518 1.3596959 2 -1
6.0922403 10.033264 1.3804963 2 -1
6.3270483 10.023235 1.4238113 2 -1
6.5739317 10.004128 1.4723064 2 -1
6.8226233 10.001296 1.4870944 2 -1
3.5004463 7.6722589 0.71881407 3 -1
3.4161654 7.5646658 0.71577448 3 -1
3.3721123 7.530961 0.67862648 3 -1
3.3325839 7.4540939 0.64983898 3 -1
3.3146782 7.4183507 0.6508795 3 -1
3.3123322 7.3482108 0.65071261 3 -1
3.2663007 7.3365712 0.62072945 3 -1
3.246973 7.3089538 0.62597889 3 -1
3.252378 7.2751241 0.6361025 3 -1
3.2354262 7.2455115 0.62191689 3 -1
3.2222834 7.2171397 0.64071345 3 -1
3.2214117 7.1957264 0.63638902 3 -1
3.2067337 7.1640306 0.63695872 3 -1
3.2150106 7.1434984 0.64072084 3 -1
3.1899951 7.1272769 0.60966289 3 -1
3.216707 7.1053886 0.61865109 3 -1
3.2002058 7.0738387 0.61450624 3 -1
3.2112784 7.0312753 0.60671556 3 -1
3.2097092 7.0370526 0.62236983 3 -1
3.1943951 7.0034328 0.61968911 3 -1
3.1975925 6.9591746 0.59892571 3 -1
3.19609 6.9563746 0.62539506 3 -1
3.2046642 6.917172 0.60720134 3 -1
3.2032285 6.8941274 0.61256933 3 -1
3.2127662 6.886755 0.62172657 3 -1
3.1973443 6.8517733 0.62664455 3 -1
3.2046683 6.831387 0.6231057 3 -1
3.211777 6.8308835 0.62125725 3 -1
3.2030754 6.7634768 0.63105953 3 -1
3.2050133 6.7508698 0.62995875 3 -1
3.2275243 6.716713 0.61837173 3 -1
3.2449946 6.6945081 0.62813216 3 -1
3.2406657 6.6595435 0.61677241 3 -1
3.2591982 6.6260633 0.64984655 3 -1
3.2808707 6.5923395 0.63501334 3 -1
3.2990861 6.5568142 0.63679326 3 -1
3.3075523 6.5087562 0.67602533 3 -1
3.342062 6.45544 0.67492849 3 -1
3.3794012 6.3986135 0.68851244 3 -1
3.4780297 6.2852511 0.70905858 3 -1
7.0352678 3.5813129 1.5873531 2 -1
7.0303078 3.3630242 1.6219002 2 -1
4.9096212 4.9354615 1.0861924 3 -1
4.704731 4.9642925 1.0735383 3 -1
