# .PCD v0.7 - Point Cloud Data file format
VERSION 0.7
FIELDS x y z label
SIZE 4 4 4 4
TYPE F F F U
COUNT 1 1 1 1
WIDTH 1317
HEIGHT 1
VIEWPOINT 1 0.999978 0.0997704 1 0 0 0
POINTS 1317
DATA ascii
0.1012184 2.1511519 0.47643781 2 -1
0.11788619 2.2148037 0.47497311 2 -1
0.091441453 2.2807071 0.47974351 2 -1
0.12328887 2.3449891 0.46293595 2 -1
0.10809422 2.4256313 0.44998026 2 -1
0.13994575 2.5062017 0.47116616 2 -1
0.12417978 2.6246123 0.45287898 2 -1
0.13805825 2.7324939 0.46041086 2 -1
0.13040191 2.8700385 0.46921855 2 -1
0.13375938 3.0089169 0.47338557 2 -1
0.13850552 3.1601477 0.48018175 2 -1
0.12924922 3.3480525 0.45889407 2 -1
0.14656943 3.5821824 0.48089105 2 -1
0.14637566 3.8533874 0.4756636 2 -1
0.13898665 4.1668944 0.46636388 2 -1
0.16004449 4.5998015 0.48927993 2 -1
0.14657438 5.1259069 0.45950952 2 -1
0.18719137 5.8240271 0.47263739 2 -1
0.19779342 6.8317456 0.47034144 2 -1
0.79159343 4.7831783 0.46855274 3 -1
0.91470689 4.4761901 0.47709969 3 -1
0.99596977 4.347321 0.47775167 3 -1
1.1130831 4.2273412 0.48716283 3 -1
1.2042518 4.1801562 0.47611231 3 -1
1.2693832 4.1123948 0.46914622 3 -1
1.3706303 4.0787711 0.4609184 3 -1
1.4360831 4.0427856 0.46297047 3 -1
1.5132802 4.0221286 0.48211667 3 -1
1.6188099 4.0031071 0.47384295 3 -1
1.7047029 3.991426 0.46740255 3 -1
1.2307478 2.1182258 0.46486798 3 -1
1.2024343 1.9919047 0.45803902 3 -1
1.2360475 1.9305861 0.46169248 3 -1
1.2362878 1.8411052 0.46326879 3 -1
1.2249961 1.8044956 0.4577783 3 -1
1.2411065 1.7720129 0.48013282 3 -1
1.2417459 1.7461305 0.47570685 3 -1
1.255654 1.7132114 0.45856413 3 -1
1.2573817 1.6845739 0.46027625 3 -1
0.11523032 1.1440063 0.48415047 2 -1
0.099072456 1.1660011 0.49580747 2 -1
0.10167134 1.1764479 0.50001401 2 -1
0.10695559 1.2310586 0.48392442 2 -1
0.12099612 1.2458694 0.48465785 2 -1
0.12232667 1.2607062 0.49289218 2 -1
0.0869537 1.3119593 0.48588413 2 -1
0.093172848 1.3140047 0.49899861 2 -1
0.097896218 1.3679855 0.49473256 2 -1
0.095052302 1.3976978 0.49780026 2 -1
0.11230218 1.4171046 0.49343351 2 -1
0.10830992 1.4224751 0.48371366 2 -1
0.12115204 1.4424541 0.52478337 2 -1
0.11130267 1.5003401 0.50422704 2 -1
0.098979652 1.5171316 0.48632428 2 -1
0.12677962 1.5369897 0.48018724 2 -1
0.099188149 1.5742223 0.50754601 2 -1
0.10720271 1.6136363 0.48511311 2 -1
0.10920465 1.6288455 0.50556445 2 -1
0.091354966 1.6904147 0.48910692 2 -1
0.10996425 1.7200537 0.50582987 2 -1
0.10699666 1.7434207 0.48052391 2 -1
0.087532759 1.7982578 0.50379032 2 -1
0.09989804 1.8431443 0.49451676 2 -1
0.10962224 1.8841453 0.50064021 2 -1
0.11690319 1.9302204 0.48969772 2 -1
0.10866505 1.9676595 0.49333772 2 -1
0.13072258 2.0205367 0.49956369 2 -1
0.11317748 2.0885029 0.50532138 2 -1
0.12983197 2.1366534 0.49108002 2 -1
0.13155961 2.1998646 0.49572372 2 -1
0.11962855 2.2914715 0.51015246 2 -1
0.14897203 2.3568044 0.50542617 2 -1
0.11728245 2.4293649 0.51368409 2 -1
0.12680328 2.5012016 0.50042969 2 -1
0.1296491 2.6367807 0.49773604 2 -1
0.14426392 2.7335973 0.50778943 2 -1
0.11932814 2.8628242 0.4998984 2 -1
0.15250194 3.0141473 0.52001303 2 -1
0.14485252 3.1669116 0.50553489 2 -1
0.13398588 3.3695059 0.51412946 2 -1
0.13982856 3.5851374 0.50839281 2 -1
0.14362299 3.854043 0.54759908 2 -1
0.1493786 4.1787271 0.53755081 2 -1
0.16034889 4.6054502 0.56087202 2 -1
0.18493885 5.1280074 0.54155606 2 -1
0.18227392 5.8288736 0.56107461 2 -1
0.2092365 6.8302412 0.59375483 2 -1
0.8022294 4.7512131 0.55633628 3 -1
0.90338147 4.4758744 0.52965558 3 -1
1.0296284 4.3305511 0.5240252 3 -1
1.0925143 4.2472234 0.52436131 3 -1
1.1895711 4.16958 0.55198789 3 -1
1.2836971 4.1061411 0.54464799 3 -1
1.3674948 4.0792532 0.51698643 3 -1
1.4414899 4.0395732 0.52670324 3 -1
1.5414908 4.0108786 0.54875159 3 -1
1.5956181 4.0066261 0.53624165 3 -1
1.7152092 3.98034 0.53462732 3 -1
1.2299378 2.1004891 0.48542178 3 -1
1.2017716 1.9585145 0.47249493 3 -1
1.2180674 1.9171956 0.47740102 3 -1
1.2289307 1.8689287 0.49370897 3 -1
1.2179275 1.8102243 0.48496398 3 -1
1.2484356 1.7768965 0.4936794 3 -1
1.2414203 1.7559462 0.49000865 3 -1
1.2628264 1.7224436 0.4938173 3 -1
1.2511637 1.6866992 0.49451524 3 -1
0.11078632 1.1320696 0.5110867 2 -1
0.09744221 1.1554685 0.50340354 2 -1
0.08908999 1.1935022 0.49076259 2 -1
0.098986208 1.2359719 0.49885315 2 -1
0.11794531 1.2377057 0.50407028 2 -1
0.10913265 1.2697229 0.51394469 2 -1
0.098298192 1.2799615 0.52219594 2 -1
0.11924976 1.3230166 0.52379215 2 -1
0.10395563 1.353934 0.50393212 2 -1
0.092515886 1.3752189 0.51761365 2 -1
0.10477239 1.4017961 0.50138307 2 -1
0.09453851 1.4314134 0.49964783 2 -1
0.12265843 1.4595411 0.51529491 2 -1
0.11295462 1.4770408 0.4906567 2 -1
0.10803288 1.5340483 0.51411003 2 -1
0.11847097 1.5627732 0.50979787 2 -1
0.10354865 1.5807698 0.52015495 2 -1
0.11795378 1.6153089 0.51472783 2 -1
0.11447179 1.6479852 0.51223701 2 -1
0.12974155 1.6683826 0.50962013 2 -1
0.097842216 1.7151902 0.51307154 2 -1
0.10238171 1.753509 0.50583053 2 -1
0.096950889 1.7947384 0.53502917 2 -1
0.12802553 1.8333094 0.51983118 2 -1
0.1160658 1.8943614 0.52358955 2 -1
0.12432879 1.9320527 0.53265661 2 -1
0.10799044 1.9681364 0.52708799 2 -1
0.116184 2.0423014 0.53343654 2 -1
0.12176013 2.0826623 0.52871311 2 -1
0.13343388 2.1518764 0.5284633 2 -1
0.1033591 2.2092867 0.52166849 2 -1
0.12353295 2.2863245 0.54091871 2 -1
0.12508863 2.3482451 0.51870549 2 -1
0.12091058 2.4366474 0.54777694 2 -1
0.13104677 2.5332718 0.53892398 2 -1
0.12823659 2.6187701 0.52204007 2 -1
0.11956275 2.7437513 0.54427826 2 -1
0.13272452 2.8430529 0.55227447 2 -1
0.12437975 3.0204675 0.56172502 2 -1
0.14077652 3.1657829 0.55098605 2 -1
0.14341074 3.360589 0.5647856 2 -1
0.13529557 3.565691 0.57617652 2 -1
0.15383154 3.8496218 0.59540278 2 -1
0.15823954 4.1534815 0.61106145 2 -1
0.16730559 4.6058507 0.60475218 2 -1
0.1767891 5.1206942 0.63424778 2 -1
0.1867947 5.8117614 0.65701139 2 -1
0.20886129 6.8276353 0.70295298 2 -1
0.80570149 4.7644992 0.62987816 3 -1
0.90949637 4.4769273 0.60900581 3 -1
0.99358118 4.3321466 0.59607393 3 -1
1.1222382 4.2330475 0.60901988 3 -1
1.1776478 4.18783 0.60276997 3 -1
1.2789893 4.1104889 0.60853779 3 -1
1.3603678 4.076673 0.58429366 3 -1
1.4556105 4.0566139 0.60141826 3 -1
1.5265963 4.0090671 0.59530199 3 -1
1.6323736 3.9934425 0.59479022 3 -1
1.7119012 3.9885206 0.6069088 3 -1
1.2196604 2.1067948 0.51948667 3 -1
1.2046086 1.9847922 0.4946627 3 -1
1.1955382 1.8988609 0.51714385 3 -1
1.2268897 1.8637254 0.50009799 3 -1
1.2290704 1.8089259 0.49917629 3 -1
1.2321713 1.7817039 0.49596658 3 -1
1.2529376 1.738971 0.49923468 3 -1
1.2476035 1.7087327 0.49701691 3 -1
1.2573718 1.68557 0.48869419 3 -1
0.10445452 1.1504874 0.51896489 2 -1
0.092922032 1.1673982 0.52896893 2 -1
0.11348987 1.190668 0.50953895 2 -1
0.10870862 1.2073267 0.51679623 2 -1
0.10572624 1.272158 0.55363148 2 -1
0.1211499 1.2832941 0.53614724 2 -1
0.11210394 1.2986836 0.51099193 2 -1
0.1167177 1.3144684 0.52253658 2 -1
0.11040211 1.3449411 0.53402281 2 -1
0.11588877 1.3690168 0.52412766 2 -1
0.093050003 1.377579 0.54053921 2 -1
0.10946798 1.4410195 0.52717936 2 -1
0.11089498 1.4424043 0.52052528 2 -1
0.089499593 1.4921733 0.53373522 2 -1
0.11145329 1.5159221 0.53293407 2 -1
0.10797679 1.5445361 0.55209601 2 -1
0.10508871 1.598443 0.52752298 2 -1
0.11213678 1.6060553 0.53303647 2 -1
0.091736317 1.6377277 0.52630949 2 -1
0.12155616 1.6696119 0.55213821 2 -1
0.10686225 1.7243894 0.53567225 2 -1
0.10712469 1.7487061 0.52739811 2 -1
0.12393284 1.7807436 0.54903233 2 -1
0.11370409 1.8282049 0.54314476 2 -1
0.11149549 1.8763683 0.54347956 2 -1
0.10222834 1.9210925 0.52895433 2 -1
0.12443614 1.9813197 0.56039774 2 -1
0.11594355 2.0236003 0.55717224 2 -1
0.12541711 2.0749292 0.55287611 2 -1
0.11697108 2.1352601 0.54192132 2 -1
0.12096643 2.2065363 0.55005127 2 -1
0.13903666 2.2777367 0.57515633 2 -1
0.12198454 2.3426824 0.57019418 2 -1
0.13786942 2.4422975 0.56506133 2 -1
0.1418159 2.5289936 0.57121718 2 -1
0.11454582 2.6320953 0.58033204 2 -1
0.13830346 2.7311242 0.59010869 2 -1
0.1565848 2.8485341 0.58308041 2 -1
0.1234054 2.9956269 0.592704 2 -1
0.13230991 3.1701035 0.61922419 2 -1
0.13861692 3.3542209 0.63016748 2 -1
0.13322252 3.5796576 0.63641512 2 -1
0.14477968 3.8460312 0.64336324 2 -1
0.13491213 4.1986113 0.66271484 2 -1
0.18023038 4.5805464 0.69342554 2 -1
0.15689725 5.1139894 0.74255562 2 -1
0.17896575 5.8200607 0.77565658 2 -1
0.2129094 6.8146186 0.82934248 2 -1
0.78953367 4.7660475 0.72013175 3 -1
0.88701397 4.4899158 0.66783309 3 -1
0.99589199 4.3271952 0.67069495 3 -1
1.1043952 4.2347903 0.66480196 3 -1
1.1794977 4.1813149 0.68021321 3 -1
1.2725102 4.1197429 0.68350422 3 -1
1.3576822 4.0673084 0.65801752 3 -1
1.426682 4.0458927 0.68152499 3 -1
1.5298285 4.0121198 0.6746273 3 -1
1.6229701 4.0079713 0.64746034 3 -1
1.736052 3.990458 0.64315331 3 -1
1.2301179 2.1128221 0.53400409 3 -1
1.2132087 1.9858725 0.52315032 3 -1
1.2011987 1.9116994 0.51394945 3 -1
1.2130331 1.8594513 0.5279566 3 -1
1.2198391 1.8047217 0.5265106 3 -1
1.2460815 1.7699409 0.52180976 3 -1
1.2287198 1.7506301 0.50788754 3 -1
1.2474034 1.707473 0.5108977 3 -1
1.2409961 1.6826538 0.49909186 3 -1
0.090179563 1.1405798 0.5523237 2 -1
0.10476291 1.1759928 0.54007506 2 -1
0.094800115 1.1799285 0.54834157 2 -1
0.092497349 1.1941531 0.55581206 2 -1
0.098896027 1.2371836 0.56297433 2 -1
0.1114319 1.2589229 0.53723764 2 -1
0.11064702 1.2887356 0.54025513 2 -1
0.10445964 1.3347828 0.54135782 2 -1
0.10144871 1.3329129 0.54073441 2 -1
0.11519027 1.3744627 0.54769617 2 -1
0.11780947 1.4161783 0.52890998 2 -1
0.0975281 1.4272416 0.53912526 2 -1
0.11139059 1.4601207 0.57011914 2 -1
0.10144883 1.5041525 0.54597169 2 -1
0.10711777 1.5192531 0.5162214 2 -1
0.10035425 1.5417285 0.54561704 2 -1
0.09398514 1.574844 0.55696487 2 -1
0.10794443 1.6128345 0.58127505 2 -1
0.090931118 1.6453395 0.55356258 2 -1
0.10496581 1.6824217 0.54741812 2 -1
0.132505 1.71417 0.54474491 2 -1
0.10435408 1.7757444 0.54712236 2 -1
0.11850381 1.7962556 0.55033135 2 -1
0.12789112 1.8442926 0.56819063 2 -1
0.129264 1.8833076 0.56231618 2 -1
0.11810178 1.9087769 0.57502651 2 -1
0.096762419 1.9652264 0.56073886 2 -1
0.10197264 2.0340869 0.56235725 2 -1
0.14059871 2.0855577 0.583507 2 -1
0.10356808 2.1521654 0.58186531 2 -1
0.11714995 2.2050149 0.58902335 2 -1
0.13143188 2.2781019 0.57546443 2 -1
0.11993182 2.3519578 0.60134113 2 -1
0.10946798 2.4308696 0.58490896 2 -1
0.13082057 2.5162086 0.60714817 2 -1
0.13176489 2.6158476 0.61624098 2 -1
0.12940443 2.7242665 0.62902915 2 -1
0.13540518 2.8514016 0.61719477 2 -1
0.12231523 3.0093074 0.63411283 2 -1
0.14523131 3.1672082 0.65526712 2 -1
0.13232154 3.3611503 0.66463327 2 -1
0.1466465 3.5627861 0.70159221 2 -1
0.165299 3.8493156 0.70473254 2 -1
0.15416831 4.1703491 0.74726629 2 -1
0.16501808 4.5775008 0.76335919 2 -1
0.17759603 5.1271071 0.82675004 2 -1
0.17408556 5.8098941 0.86917377 2 -1
0.20156592 6.8105474 0.98059845 2 -1
0.79951465 4.7737727 0.77891874 3 -1
0.9079327 4.464138 0.76179922 3 -1
0.99820596 4.3198223 0.74669278 3 -1
1.1118326 4.2637362 0.71663988 3 -1
1.1854625 4.1947598 0.74706566 3 -1
1.2682726 4.1418962 0.73771822 3 -1
1.3476366 4.0712194 0.73379064 3 -1
1.4309435 4.0462093 0.69963562 3 -1
1.5463378 4.022635 0.73430252 3 -1
1.6101549 4.0075684 0.71523046 3 -1
1.7174103 3.9838233 0.72473049 3 -1
1.2188997 2.117214 0.55576265 3 -1
1.2148166 1.9917681 0.55260503 3 -1
1.2335371 1.9144137 0.52846694 3 -1
1.21675 1.8658772 0.54419154 3 -1
1.2329415 1.8004687 0.53334969 3 -1
1.2409043 1.779705 0.53531671 3 -1
1.2399501 1.7406685 0.5208863 3 -1
1.2496572 1.7084374 0.53276885 3 -1
1.2354844 1.705771 0.51623386 3 -1
0.11224449 1.1362196 0.56794828 2 -1
0.11188543 1.1616445 0.54435694 2 -1
0.10973471 1.1841834 0.56129378 2 -1
0.10135603 1.2179779 0.54772371 2 -1
0.10613644 1.2408007 0.58183968 2 -1
0.11829376 1.2801015 0.54292554 2 -1
0.096399784 1.3020859 0.56216288 2 -1
0.10983515 1.3222592 0.57320815 2 -1
0.10445678 1.3550516 0.56712151 2 -1
0.11672074 1.3801384 0.56813419 2 -1
0.10087609 1.3946043 0.57166648 2 -1
0.12635058 1.4386234 0.58258569 2 -1
0.10901213 1.4700104 0.55965865 2 -1
0.098229468 1.4910514 0.57340503 2 -1
0.1058113 1.514555 0.56619 2 -1
0.10581696 1.5330944 0.56962097 2 -1
0.10217655 1.5763874 0.55359739 2 -1
0.10625935 1.6182697 0.58491617 2 -1
0.10033309 1.6381235 0.5521853 2 -1
0.099121571 1.6624033 0.58844495 2 -1
0.12222242 1.7174513 0.56553727 2 -1
0.10717642 1.7372007 0.5771755 2 -1
0.10277283 1.8099136 0.56447244 2 -1
0.1083681 1.8450904 0.57674682 2 -1
0.12371898 1.8758986 0.57772255 2 -1
0.12552786 1.9190557 0.60402071 2 -1
0.10361737 1.9827616 0.61380148 2 -1
0.12020588 2.0412414 0.60074449 2 -1
0.12957352 2.0995381 0.6027143 2 -1
0.11160052 2.150475 0.5995118 2 -1
0.10433322 2.2094264 0.60738897 2 -1
0.12788177 2.2727609 0.62331462 2 -1
0.11679393 2.3385425 0.62282932 2 -1
0.11778718 2.4351413 0.62110937 2 -1
0.13768876 2.521863 0.64033067 2 -1
0.11843407 2.6198213 0.64265573 2 -1
0.13347656 2.721832 0.64996254 2 -1
0.1409936 2.8637242 0.66703212 2 -1
0.12940204 3.0144553 0.68392026 2 -1
0.13749427 3.176209 0.70571589 2 -1
0.13383681 3.367074 0.72866869 2 -1
0.14522946 3.5809999 0.73560596 2 -1
0.14070821 3.8468165 0.77335441 2 -1
0.16399693 4.1655178 0.78726327 2 -1
0.16501695 4.5851974 0.84777975 2 -1
0.16646391 5.1058364 0.91025817 2 -1
0.1839875 5.8156734 0.98136878 2 -1
0.21309459 6.8093095 1.0922186 2 -1
0.78137457 4.7570825 0.85903847 3 -1
0.9054414 4.4800944 0.83698392 3 -1
0.99517798 4.3454146 0.81285894 3 -1
1.0835679 4.2461786 0.81792951 3 -1
1.1983227 4.1701851 0.8012327 3 -1
1.2809832 4.1035209 0.79833055 3 -1
1.365836 4.0703888 0.78473067 3 -1
1.4448987 4.0201454 0.78879261 3 -1
1.5090313 4.0123167 0.78858995 3 -1
1.6175368 3.9778681 0.78628719 3 -1
1.6929798 3.9875469 0.76719344 3 -1
1.2225094 2.1241927 0.57988501 3 -1
1.2340927 1.9803782 0.55679762 3 -1
1.2154802 1.9208722 0.55644476 3 -1
1.2246679 1.8419604 0.54607743 3 -1
1.2456965 1.7970381 0.55782109 3 -1
1.2557501 1.7884011 0.54644549 3 -1
1.2453442 1.7400324 0.55411214 3 -1
1.255762 1.7028432 0.53439271 3 -1
1.2532983 1.7004771 0.53507173 3 -1
0.13281769 1.1243615 0.5891397 2 -1
0.10239708 1.1562458 0.57156175 2 -1
0.11087036 1.1885978 0.57595664 2 -1
0.11731517 1.2309451 0.57872272 2 -1
0.10720479 1.2425435 0.59925866 2 -1
0.087696314 1.2792221 0.57087898 2 -1
0.10291976 1.3068402 0.5857935 2 -1
0.1054005 1.3102093 0.58522499 2 -1
0.11089128 1.3512983 0.57489234 2 -1
0.10280067 1.3718961 0.58956128 2 -1
0.10246092 1.3958092 0.58359337 2 -1
0.1067282 1.4531318 0.58202624 2 -1
0.12755454 1.4419628 0.59515542 2 -1
0.13080722 1.4916028 0.56907874 2 -1
0.12235606 1.5254388 0.58001524 2 -1
0.098674893 1.5417284 0.58324069 2 -1
0.12024784 1.5771785 0.60944152 2 -1
0.11049509 1.5937067 0.59980989 2 -1
0.11241525 1.6470878 0.58641964 2 -1
0.10137403 1.6789746 0.61534083 2 -1
0.1153245 1.70209 0.603827 2 -1
0.10038441 1.7484611 0.60833728 2 -1
0.12561566 1.8012291 0.6188457 2 -1
0.1139372 1.821568 0.61363554 2 -1
0.11254287 1.9014521 0.62640524 2 -1
0.11607701 1.9179144 0.61748111 2 -1
0.1193018 1.989607 0.63385081 2 -1
0.12832022 2.0369842 0.63293624 2 -1
0.11559248 2.092962 0.61903799 2 -1
0.11570287 2.1357567 0.64639294 2 -1
0.14181238 2.2166615 0.65609908 2 -1
0.11999452 2.2739902 0.65792751 2 -1
0.12619829 2.3610353 0.66515613 2 -1
0.098914027 2.4185388 0.65852499 2 -1
0.1293124 2.5232711 0.66255724 2 -1
0.14092588 2.6117439 0.68350184 2 -1
0.13059956 2.7154708 0.68825817 2 -1
0.13090152 2.8666539 0.73861587 2 -1
0.1316976 3.0233073 0.73289096 2 -1
0.13866836 3.1576014 0.74750304 2 -1
0.13982993 3.3623071 0.77251494 2 -1
0.14234483 3.5856609 0.79368591 2 -1
0.14720339 3.8599467 0.85009027 2 -1
0.1379956 4.1866226 0.85906112 2 -1
0.1631248 4.5835934 0.92822254 2 -1
0.17876327 5.1047144 0.99122083 2 -1
0.18823588 5.8134513 1.0659269 2 -1
0.19935626 6.8217254 1.209528 2 -1
0.80145729 4.7609282 0.94692481 3 -1
0.90722704 4.479847 0.90986109 3 -1
0.9971233 4.3366733 0.88646448 3 -1
1.1010518 4.2281575 0.8737855 3 -1
1.1925442 4.1754427 0.85025585 3 -1
1.2864708 4.1046829 0.86275196 3 -1
1.3573117 4.0553918 0.85691464 3 -1
1.4431782 4.0416913 0.85249984 3 -1
1.5324534 4.0042901 0.8564446 3 -1
1.6141368 3.9969511 0.86028063 3 -1
1.7121842 3.9833593 0.84586442 3 -1
1.2248888 2.1093142 0.58944827 3 -1
1.2166975 1.9970496 0.59461582 3 -1
1.2231297 1.9024755 0.57408762 3 -1
1.2193203 1.8455148 0.56882626 3 -1
1.2248248 1.8060372 0.56003177 3 -1
1.2361432 1.7790433 0.56716037 3 -1
1.2676649 1.7382448 0.56554174 3 -1
1.2601162 1.7214937 0.57831949 3 -1
1.2618185 1.702605 0.56339872 3 -1
0.098948956 1.1554941 0.59474862 2 -1
0.10005391 1.1650203 0.58652443 2 -1
0.11000621 1.2014246 0.58819413 2 -1
0.1011588 1.2225137 0.59095979 2 -1
0.098072231 1.2417089 0.61178875 2 -1
0.088610947 1.2694074 0.58871412 2 -1
0.10464489 1.2968161 0.59057587 2 -1
0.10739225 1.333526 0.59199131 2 -1
0.10825735 1.3382502 0.57527876 2 -1
0.10487098 1.3835827 0.58201581 2 -1
0.10362113 1.4080446 0.62426698 2 -1
0.11053967 1.4249257 0.61147618 2 -1
0.1202426 1.4621767 0.61500323 2 -1
0.10480136 1.494009 0.59882635 2 -1
0.11260498 1.5020801 0.61029685 2 -1
0.10973918 1.539778 0.60705042 2 -1
0.12060124 1.5686823 0.63049757 2 -1
0.11390275 1.6240273 0.619452 2 -1
0.11452669 1.6542501 0.60905468 2 -1
0.13201296 1.6859884 0.60695398 2 -1
0.10121721 1.7151046 0.63022399 2 -1
0.11170119 1.7621602 0.6127404 2 -1
0.10019827 1.789201 0.63665342 2 -1
0.12157416 1.8388212 0.6321243 2 -1
0.11696148 1.8809445 0.64783609 2 -1
0.097160816 1.9203737 0.65031505 2 -1
0.1302861 1.9857004 0.65511549 2 -1
0.12232488 2.0324733 0.64147735 2 -1
0.11845624 2.0868468 0.66199481 2 -1
0.12881064 2.1355228 0.66403389 2 -1
0.11246508 2.2061098 0.67526805 2 -1
0.13447517 2.2712035 0.6753006 2 -1
0.11257035 2.3443415 0.68820083 2 -1
0.12835032 2.4442031 0.69863403 2 -1
0.11415768 2.5108895 0.70849693 2 -1
0.13550615 2.6397655 0.72351325 2 -1
0.12061828 2.7306795 0.7460016 2 -1
0.13443655 2.850069 0.75112903 2 -1
0.14203691 2.9927585 0.76867652 2 -1
0.12640941 3.1656094 0.82091355 2 -1
0.1498906 3.3561034 0.83147216 2 -1
0.14203131 3.5564141 0.86996317 2 -1
0.15252221 3.8441982 0.91210878 2 -1
0.1488502 4.1740322 0.94128537 2 -1
0.15971237 4.5884948 1.0118867 2 -1
0.1719141 5.0857396 1.0566891 2 -1
0.17606425 5.8310018 1.1779171 2 -1
0.21137381 6.8220105 1.3447254 2 -1
0.79473537 4.7556486 1.0141424 3 -1
0.92254591 4.4731479 0.9960928 3 -1
0.99155623 4.3406897 0.95768988 3 -1
1.1094615 4.2368288 0.95037341 3 -1
1.1929626 4.174592 0.92824233 3 -1
1.2653199 4.1134663 0.91248584 3 -1
1.3787162 4.0666761 0.90849257 3 -1
1.4554698 4.0349283 0.9141537 3 -1
1.5205305 3.9935131 0.90692294 3 -1
1.620533 3.9797745 0.91594243 3 -1
1.7064024 3.9866395 0.91282988 3 -1
1.2152965 2.1164823 0.62277627 3 -1
1.2206633 1.9743671 0.59164351 3 -1
1.2154753 1.918503 0.6042434 3 -1
1.2371352 1.8569964 0.5909636 3 -1
1.2252077 1.8000903 0.58066386 3 -1
1.2244675 1.786435 0.56323969 3 -1
1.2380183 1.7478149 0.58216709 3 -1
1.2481991 1.7092702 0.58205581 3 -1
1.2480352 1.6868715 0.56711698 3 -1
0.11246949 1.1496052 0.61668456 2 -1
0.086366832 1.1793172 0.60835671 2 -1
0.10131788 1.1825176 0.61381376 2 -1
0.11035448 1.1858956 0.62738788 2 -1
0.11465079 1.2343471 0.61810422 2 -1
0.09329319 1.2732332 0.62031722 2 -1
0.099564373 1.3066235 0.62243056 2 -1
0.10984433 1.3099688 0.602211 2 -1
0.096973181 1.3441092 0.61563325 2 -1
0.10011888 1.3805521 0.60971797 2 -1
0.10298365 1.3829541 0.61751127 2 -1
0.10981661 1.4378257 0.60168839 2 -1
0.11536884 1.4647206 0.64316487 2 -1
0.10458964 1.4830585 0.61740804 2 -1
0.11542189 1.5180976 0.63080621 2 -1
0.11238527 1.5576186 0.62858522 2 -1
0.098532796 1.5714185 0.6223352 2 -1
0.10181499 1.6013663 0.64462841 2 -1
0.10267067 1.647449 0.63761878 2 -1
0.11605048 1.6912893 0.62709618 2 -1
0.12332702 1.7236314 0.64695215 2 -1
0.12088531 1.7498839 0.64273393 2 -1
0.11443615 1.7958975 0.66756308 2 -1
0.12050724 1.8392309 0.64938939 2 -1
0.10918111 1.8707275 0.66284668 2 -1
0.10980088 1.9207752 0.65651929 2 -1
0.10332459 1.9885459 0.67448175 2 -1
0.12339061 2.0226352 0.69527137 2 -1
0.1227982 2.0861576 0.68079484 2 -1
0.11940372 2.1525638 0.70307684 2 -1
0.10679108 2.2022057 0.69946206 2 -1
0.12695789 2.2670674 0.71139884 2 -1
0.12578654 2.3483548 0.73490584 2 -1
0.12705863 2.4284089 0.73636568 2 -1
0.12611377 2.5240226 0.74525297 2 -1
0.12274355 2.6120517 0.76579177 2 -1
0.1305325 2.7417059 0.79123533 2 -1
0.13667071 2.8557899 0.79770958 2 -1
0.13219273 3.0034411 0.80520606 2 -1
0.12372899 3.1618147 0.86301947 2 -1
0.1511755 3.3592668 0.87311327 2 -1
0.15371424 3.594286 0.90838408 2 -1
0.140903 3.8599863 0.97005999 2 -1
0.16207772 4.1569738 0.99794471 2 -1
0.17479795 4.5772262 1.0877099 2 -1
0.15596193 5.1132655 1.1710207 2 -1
0.20125842 5.8229823 1.2952633 2 -1
0.21411824 6.8340716 1.464238 2 -1
0.79295367 4.7603798 1.1065061 3 -1
0.92369348 4.4744239 1.0534284 3 -1
1.0193025 4.3475208 1.0171537 3 -1
1.0851023 4.2430406 0.97969306 3 -1
1.1936584 4.1737432 0.99230051 3 -1
1.2675091 4.1182375 0.98185623 3 -1
1.3803699 4.0807948 0.98963809 3 -1
1.4455624 4.0247636 0.96617627 3 -1
1.5386791 4.0066905 0.97817457 3 -1
1.6206405 4.0080495 0.97533393 3 -1
1.6891627 3.9970412 0.99076641 3 -1
1.2403356 2.1201472 0.63098824 3 -1
1.2164261 1.970957 0.62211502 3 -1
1.2242217 1.9078096 0.59832752 3 -1
1.2254806 1.8467407 0.61333823 3 -1
1.2394348 1.8123822 0.58934563 3 -1
1.2566452 1.7744361 0.57489949 3 -1
1.2402875 1.7548392 0.57593644 3 -1
1.2503781 1.7264249 0.58893365 3 -1
1.2457551 1.6854274 0.60161543 3 -1
0.11447889 1.1470245 0.63938093 2 -1
0.098507047 1.1645697 0.62198007 2 -1
0.095339656 1.1962044 0.62710917 2 -1
0.11233342 1.2048434 0.63131642 2 -1
0.0996961 1.2510551 0.61900485 2 -1
0.088791311 1.2775935 0.63415921 2 -1
0.10089368 1.2954999 0.64365971 2 -1
0.10643464 1.3268973 0.65319455 2 -1
0.1102196 1.3502096 0.644642 2 -1
0.10206562 1.3687829 0.62922442 2 -1
0.092323184 1.3919281 0.63006461 2 -1
0.09087342 1.4335196 0.63782954 2 -1
0.11403596 1.449446 0.66727495 2 -1
0.10241145 1.4694076 0.6412704 2 -1
0.1095382 1.5045493 0.655159 2 -1
0.098373055 1.5483432 0.6579026 2 -1
0.12227756 1.5833373 0.65844285 2 -1
0.111772 1.6348844 0.65483403 2 -1
0.13571304 1.6763933 0.65229332 2 -1
0.10052192 1.6833897 0.65195346 2 -1
0.11371356 1.7356701 0.65446007 2 -1
0.1323638 1.7292905 0.67275369 2 -1
0.10326403 1.8022206 0.67764485 2 -1
0.13802886 1.8486285 0.69628584 2 -1
0.12352717 1.8842926 0.69042993 2 -1
0.11424351 1.9164221 0.69333982 2 -1
0.12378901 1.97247 0.69919395 2 -1
0.11913657 2.0143893 0.71543074 2 -1
0.12163574 2.0814643 0.72682869 2 -1
0.12084806 2.1345634 0.72522891 2 -1
0.130126 2.1921563 0.73794389 2 -1
0.14117593 2.2849598 0.74196434 2 -1
0.11370099 2.3416975 0.7494843 2 -1
0.13150227 2.4281583 0.75417185 2 -1
0.11325091 2.5257859 0.77239299 2 -1
0.13301253 2.6339574 0.79925466 2 -1
0.11492419 2.7349529 0.81905639 2 -1
0.13207674 2.8663211 0.86902678 2 -1
0.15224141 3.007123 0.8543638 2 -1
0.15424919 3.180006 0.8824439 2 -1
0.14710319 3.3541374 0.93448305 2 -1
0.14261788 3.5789862 0.98723948 2 -1
0.15283579 3.8445001 1.0351392 2 -1
0.17117232 4.1830587 1.0674447 2 -1
0.16200864 4.5832562 1.1612425 2 -1
0.17821288 5.0959177 1.2442862 2 -1
0.1806556 5.8287296 1.4014658 2 -1
0.20492744 6.8339176 1.5885075 2 -1
0.80128431 4.7447643 1.183494 3 -1
0.93769622 4.4640536 1.121223 3 -1
0.99193054 4.3282065 1.0995085 3 -1
1.0952109 4.2332444 1.0731348 3 -1
1.2025602 4.1782045 1.0537344 3 -1
1.2646142 4.1163058 1.0642912 3 -1
1.348498 4.080524 1.0496438 3 -1
1.4498348 4.0367846 1.046333 3 -1
1.5458958 4.0085969 1.0325695 3 -1
1.6106045 3.9839096 1.0448822 3 -1
1.7201263 3.9724846 1.0470146 3 -1
1.2343736 2.1115649 0.66145563 3 -1
1.213975 1.9731021 0.63298166 3 -1
1.2169824 1.9138212 0.65803647 3 -1
1.2170277 1.8796849 0.6249392 3 -1
1.2240517 1.8073342 0.60278118 3 -1
1.2283809 1.7825116 0.60990632 3 -1
1.2256174 1.742703 0.59728158 3 -1
1.2483754 1.7197968 0.5977928 3 -1
1.2520226 1.6669648 0.58350724 3 -1
0.11009789 1.152554 0.65533566 2 -1
0.10628587 1.1560204 0.65712571 2 -1
0.10003334 1.1829265 0.64699697 2 -1
0.10452807 1.2296056 0.67105961 2 -1
0.1012668 1.2613509 0.65106964 2 -1
0.094726741 1.2637235 0.66891229 2 -1
0.10356492 1.2995083 0.63590825 2 -1
0.10943455 1.320184 0.65698755 2 -1
0.12544012 1.3581198 0.65383661 2 -1
0.11322016 1.3843039 0.64534271 2 -1
0.11274505 1.4014354 0.6553061 2 -1
0.091788173 1.4301851 0.66091931 2 -1
0.11906302 1.4651704 0.65881896 2 -1
0.10591078 1.4860308 0.64765751 2 -1
0.12151217 1.5219121 0.67491591 2 -1
0.11560905 1.5460949 0.67233586 2 -1
0.10364836 1.5952457 0.6776551 2 -1
0.11817819 1.617873 0.67019224 2 -1
0.12628925 1.637105 0.68548644 2 -1
0.12237328 1.6831861 0.66494739 2 -1
0.11947948 1.7252772 0.6965996 2 -1
0.11657411 1.7555156 0.67833757 2 -1
0.11334795 1.7803677 0.70215869 2 -1
0.096306145 1.8444655 0.69799316 2 -1
0.11575449 1.8868141 0.70938563 2 -1
0.11702585 1.9027286 0.7301836 2 -1
0.14384598 1.9586887 0.72175932 2 -1
0.12740833 2.0332847 0.72826993 2 -1
0.12757224 2.0900626 0.73114181 2 -1
0.12022638 2.1454334 0.74487793 2 -1
0.11132622 2.2155199 0.76257181 2 -1
0.11817348 2.2766535 0.77076721 2 -1
0.13451719 2.3466146 0.79584742 2 -1
0.1212135 2.4245622 0.81399012 2 -1
0.10669774 2.5232844 0.82260513 2 -1
0.12959057 2.6272979 0.83569062 2 -1
0.12630707 2.7458408 0.86450398 2 -1
0.13225353 2.8566694 0.88649881 2 -1
0.14346606 2.9918602 0.90067339 2 -1
0.12741208 3.1767006 0.94154954 2 -1
0.13214988 3.3431339 0.98332357 2 -1
0.16171998 3.5863419 1.0519499 2 -1
0.14207929 3.8616977 1.0978495 2 -1
0.15539867 4.1662202 1.1509722 2 -1
0.16356236 4.5965667 1.2479006 2 -1
0.16210008 5.1253915 1.3379608 2 -1
0.18702626 5.8032641 1.4997097 2 -1
0.21949869 6.8471909 1.7128556 2 -1
0.80503803 4.749289 1.2543998 3 -1
0.90530205 4.4757128 1.1874285 3 -1
0.99955636 4.3311086 1.1647464 3 -1
1.0882502 4.2416854 1.1489142 3 -1
1.1847582 4.1721597 1.1241305 3 -1
1.2866809 4.1233139 1.128374 3 -1
1.3590199 4.0673294 1.1253306 3 -1
1.4331361 4.0378447 1.1052308 3 -1
1.5172248 3.994369 1.1198189 3 -1
1.6314249 3.9908133 1.1221323 3 -1
1.7156537 3.9841051 1.0960972 3 -1
1.2191172 2.1050477 0.68173099 3 -1
1.2162943 1.9909363 0.66101074 3 -1
1.2304068 1.9203587 0.64681852 3 -1
1.2321358 1.8622919 0.6582123 3 -1
1.2442198 1.8007426 0.62890172 3 -1
1.22472 1.7908492 0.64519536 3 -1
1.2351176 1.7289114 0.6290251 3 -1
1.2566016 1.7247541 0.61698818 3 -1
1.2615141 1.6793437 0.60582638 3 -1
0.11757356 1.1496844 0.6544832 2 -1
0.096373618 1.176512 0.65964556 2 -1
0.094667971 1.1829185 0.65682006 2 -1
0.10400784 1.227765 0.66057336 2 -1
0.11047453 1.2562383 0.67243338 2 -1
0.089673877 1.2799568 0.66733432 2 -1
0.085715771 1.2997735 0.68143022 2 -1
0.11012685 1.3188063 0.66003489 2 -1
0.1103915 1.3422927 0.67419112 2 -1
0.10435939 1.3783116 0.66804814 2 -1
0.12762952 1.4113724 0.65767121 2 -1
0.10720861 1.4305706 0.68855727 2 -1
0.11083168 1.4572115 0.67013037 2 -1
0.1122793 1.4818069 0.70563567 2 -1
0.1120652 1.5121592 0.68567419 2 -1
0.11478961 1.5391781 0.68484128 2 -1
0.11998558 1.5874922 0.68958962 2 -1
0.10972059 1.6134629 0.70289791 2 -1
0.11894232 1.6550338 0.70267797 2 -1
0.11934823 1.668669 0.71771681 2 -1
0.11106145 1.7290082 0.70515382 2 -1
0.11562747 1.7788703 0.72214377 2 -1
0.089863837 1.7926362 0.73185313 2 -1
0.13677675 1.851537 0.74029434 2 -1
0.12530941 1.8748899 0.71993685 2 -1
0.10987478 1.9192097 0.73485327 2 -1
0.11986369 1.9654067 0.7459271 2 -1
0.14040685 2.0280557 0.76218939 2 -1
0.10502541 2.0942495 0.7649256 2 -1
0.1059342 2.1603737 0.79961705 2 -1
0.13008732 2.1881063 0.80658031 2 -1
0.14265788 2.2847891 0.78627825 2 -1
0.11331838 2.3553271 0.82119501 2 -1
0.12369609 2.4168129 0.84233558 2 -1
0.12395453 2.5045676 0.87340832 2 -1
0.14903134 2.6298351 0.88644087 2 -1
0.12221944 2.7244711 0.90228033 2 -1
0.13691247 2.8609176 0.93200195 2 -1
0.13176829 3.0176077 0.96435046 2 -1
0.14098549 3.1400113 0.99392807 2 -1
0.13475472 3.3509469 1.0299431 2 -1
0.15257949 3.5731616 1.0931388 2 -1
0.14147788 3.8368659 1.1503124 2 -1
0.15608251 4.1654158 1.2320975 2 -1
0.16197807 4.581212 1.3225425 2 -1
0.17419565 5.1117487 1.445547 2 -1
0.17880994 5.8155117 1.6164765 2 -1
0.18555814 6.8318949 1.8350189 2 -1
0.80170268 4.756794 1.3265543 3 -1
0.91981828 4.4743953 1.251366 3 -1
1.0018909 4.3409762 1.2414658 3 -1
1.105265 4.2272234 1.2107146 3 -1
1.1996362 4.1761074 1.1612232 3 -1
1.2703444 4.1227889 1.1958207 3 -1
1.3617592 4.0595918 1.1819351 3 -1
1.4400407 4.0271387 1.1787301 3 -1
1.529855 3.9997487 1.1883986 3 -1
1.6249939 3.9911575 1.163754 3 -1
1.7097831 3.9711938 1.1854479 3 -1
1.2370678 2.0977199 0.71099484 3 -1
1.2181644 1.9710517 0.69844496 3 -1
1.2065995 1.9240816 0.66170204 3 -1
1.2139174 1.8579845 0.64437842 3 -1
1.221073 1.8063595 0.65609634 3 -1
1.2262299 1.7840183 0.63286793 3 -1
1.2594435 1.7518381 0.63676929 3 -1
1.2453275 1.71683 0.63349974 3 -1
1.2509599 1.6968888 0.61399806 3 -1
0.10082835 1.1481831 0.68140697 2 -1
0.097370923 1.1609336 0.69056726 2 -1
0.10633802 1.2173264 0.69750381 2 -1
0.095750153 1.2086056 0.69485736 2 -1
0.10659677 1.2678089 0.68811584 2 -1
0.10673207 1.2814668 0.68076205 2 -1
0.10376865 1.2837486 0.68734491 2 -1
0.10004848 1.325097 0.67526388 2 -1
0.11540842 1.3490896 0.69906962 2 -1
0.11709338 1.3736247 0.70601654 2 -1
0.092829227 1.3997521 0.69444025 2 -1
0.1153788 1.425154 0.70555449 2 -1
0.1195302 1.4692926 0.70682132 2 -1
0.10684317 1.4811931 0.71736407 2 -1
0.098083973 1.5156527 0.70015299 2 -1
0.11483717 1.5594347 0.71740413 2 -1
0.10899335 1.5761592 0.71470487 2 -1
0.099576056 1.6204238 0.71362185 2 -1
0.12449431 1.6527228 0.72908843 2 -1
0.11924917 1.6733091 0.70968986 2 -1
0.12831372 1.7056527 0.71912849 2 -1
0.11708778 1.7541423 0.75765073 2 -1
0.098625004 1.7870367 0.74255764 2 -1
0.10458678 1.8419254 0.75496805 2 -1
0.091036022 1.865283 0.77821255 2 -1
0.13003975 1.9274411 0.7698878 2 -1
0.11473423 1.9728043 0.77507496 2 -1
0.12666368 2.0348473 0.77519953 2 -1
0.098969221 2.08005 0.80478072 2 -1
0.11279631 2.1432798 0.8207624 2 -1
0.12977749 2.2204161 0.82674325 2 -1
0.11291611 2.2683578 0.8460995 2 -1
0.10837942 2.3347592 0.85788405 2 -1
0.12235934 2.4361441 0.87516415 2 -1
0.11468321 2.5167212 0.87859893 2 -1
0.12914824 2.6068196 0.90468502 2 -1
0.13259584 2.752553 0.94640446 2 -1
0.13499695 2.8572707 0.99911225 2 -1
0.12526244 2.9931014 0.99237084 2 -1
0.14277112 3.1734338 1.0449347 2 -1
0.13107598 3.3492413 1.0920105 2 -1
0.1445843 3.5667553 1.1240746 2 -1
0.13977516 3.852242 1.2019614 2 -1
0.15288836 4.1767726 1.2894254 2 -1
0.16903752 4.584208 1.4092873 2 -1
0.19064659 5.0923786 1.5267076 2 -1
0.20464969 5.8196411 1.7129632 2 -1
0.20436263 6.8248849 1.9779562 2 -1
0.79367512 4.7395678 1.4015875 3 -1
0.91565263 4.4720888 1.3507184 3 -1
0.99726468 4.3384118 1.3045504 3 -1
1.1081269 4.2301998 1.2968609 3 -1
1.1788331 4.1650896 1.2536341 3 -1
1.2902527 4.1024847 1.2657399 3 -1
1.3438518 4.0623875 1.2492418 3 -1
1.4546814 4.0458932 1.2421055 3 -1
1.5387236 4.0113025 1.245983 3 -1
1.622865 3.9995952 1.2430601 3 -1
1.7070222 3.9846592 1.2635771 3 -1
1.2257193 2.1124349 0.72988462 3 -1
1.2256743 1.9706013 0.70374954 3 -1
1.231173 1.8995299 0.70336699 3 -1
1.2149758 1.8694184 0.68076134 3 -1
1.238107 1.8258145 0.67041767 3 -1
1.2367258 1.7710013 0.66424572 3 -1
1.2388155 1.7493402 0.66113651 3 -1
1.2500355 1.7202053 0.64873433 3 -1
1.2483518 1.6772351 0.63697731 3 -1
0.11298066 1.1335797 0.72774994 2 -1
0.085031807 1.1775295 0.71416366 2 -1
0.10706329 1.1837503 0.68779767 2 -1
0.08517164 1.2137237 0.71460998 2 -1
0.11331505 1.246767 0.70641565 2 -1
0.11927664 1.2659492 0.72696447 2 -1
0.10596848 1.3000646 0.73380172 2 -1
0.10115981 1.3352261 0.70333314 2 -1
0.0995543 1.3356231 0.71665347 2 -1
0.088917315 1.3707435 0.72408128 2 -1
0.095756352 1.4080114 0.72845674 2 -1
0.1077047 1.4406047 0.722489 2 -1
0.11251926 1.464893 0.70951676 2 -1
0.11702293 1.4808702 0.72046077 2 -1
0.098210096 1.5329181 0.71882939 2 -1
0.10365224 1.5432563 0.73016822 2 -1
0.10828978 1.5760317 0.73605144 2 -1
0.1075986 1.6325626 0.72499382 2 -1
0.11001718 1.6461415 0.75999045 2 -1
0.097100854 1.6805596 0.77271855 2 -1
0.12571484 1.7004564 0.74998796 2 -1
0.094871581 1.7507181 0.78052199 2 -1
0.12300855 1.8009439 0.78642297 2 -1
0.11188424 1.8201065 0.78230798 2 -1
0.12772143 1.8613515 0.78929031 2 -1
0.11300176 1.9178646 0.80524313 2 -1
0.10250759 1.9891496 0.79291737 2 -1
0.11155051 2.0284209 0.80076849 2 -1
0.10659134 2.083843 0.81632543 2 -1
0.12385046 2.1495905 0.84021091 2 -1
0.11699802 2.2148023 0.83787668 2 -1
0.12275571 2.2706995 0.8659147 2 -1
0.12312907 2.3442576 0.87344432 2 -1
0.10850471 2.415185 0.91353595 2 -1
0.13162023 2.5309792 0.95205736 2 -1
0.13916981 2.621541 0.94354045 2 -1
0.12879699 2.7221346 0.98141563 2 -1
0.13990211 2.872344 1.0196874 2 -1
0.14277363 2.9865117 1.0523547 2 -1
0.14657277 3.1433063 1.0794545 2 -1
0.13022393 3.3561935 1.1304288 2 -1
0.11962444 3.55971 1.1979028 2 -1
0.14409226 3.8578868 1.2853563 2 -1
0.14883208 4.1671357 1.3586575 2 -1
0.15762556 4.5795078 1.4722183 2 -1
0.18077683 5.1099849 1.643874 2 -1
0.19332021 5.8123074 1.825793 2 -1
0.21538931 6.8320374 2.1013429 2 -1
0.80763781 4.7567434 1.5004033 3 -1
0.91366941 4.4623456 1.4278569 3 -1
1.002845 4.3301249 1.4046156 3 -1
1.0911529 4.2324429 1.3549497 3 -1
1.1750643 4.1682606 1.3424438 3 -1
1.2734025 4.1067529 1.3147582 3 -1
1.352396 4.0605011 1.3045657 3 -1
1.4297698 4.0421438 1.3122394 3 -1
1.5294236 4.0111036 1.3047041 3 -1
1.6211394 3.9988351 1.3154793 3 -1
1.7098701 3.9800611 1.3131635 3 -1
1.2223057 2.0991793 0.77531672 3 -1
1.2104539 1.9826859 0.72600424 3 -1
1.2236937 1.9072986 0.71007347 3 -1
1.2565364 1.8550127 0.6784538 3 -1
1.2381921 1.8124626 0.70154107 3 -1
1.2518742 1.7991154 0.66648042 3 -1
1.232392 1.7452657 0.65976536 3 -1
1.2609587 1.719382 0.66350698 3 -1
1.2414906 1.6800504 0.6704582 3 -1
0.11612093 1.1452304 0.73179221 2 -1
0.095971406 1.1675665 0.72157466 2 -1
0.10043359 1.187497 0.72314119 2 -1
0.10016608 1.2081995 0.73290193 2 -1
0.10932267 1.2440338 0.7392714 2 -1
0.11857229 1.2611768 0.73964393 2 -1
0.11376542 1.2754043 0.71403074 2 -1
0.12152398 1.3207138 0.73586226 2 -1
0.10694385 1.3391114 0.7246877 2 -1
0.11489183 1.3876748 0.72581506 2 -1
0.09479022 1.40837 0.73057783 2 -1
0.095938206 1.4271967 0.75295222 2 -1
0.094412744 1.4557111 0.74053812 2 -1
0.10454899 1.4742725 0.75178683 2 -1
0.10982156 1.5019548 0.7446053 2 -1
0.10575455 1.5475061 0.75292134 2 -1
0.10046768 1.580979 0.75797403 2 -1
0.11798012 1.6178701 0.75220513 2 -1
0.11294651 1.6534832 0.76759505 2 -1
0.12030089 1.6962976 0.77196801 2 -1
0.12192917 1.709264 0.78645325 2 -1
0.11587495 1.7569625 0.77926147 2 -1
0.1241405 1.7932631 0.78891575 2 -1
0.10310924 1.8596799 0.81758142 2 -1
0.10433298 1.8841012 0.79427445 2 -1
0.11086905 1.9236711 0.80385923 2 -1
0.11250687 1.9811263 0.83114994 2 -1
0.1228745 2.0258572 0.84875226 2 -1
0.11725926 2.0622685 0.86352241 2 -1
0.12682843 2.1496696 0.86718178 2 -1
0.11627901 2.2147732 0.87979031 2 -1
0.121135 2.286366 0.91364133 2 -1
0.12314361 2.3465197 0.92030048 2 -1
0.12635815 2.4372523 0.93983912 2 -1
0.13360852 2.5298543 0.97068763 2 -1
0.12924916 2.6169019 1.0004959 2 -1
0.1428588 2.7408545 1.0314454 2 -1
0.12720537 2.8519812 1.0516555 2 -1
0.1137346 3.0017643 1.091013 2 -1
0.13621277 3.1699419 1.1335038 2 -1
0.12781179 3.356432 1.1988826 2 -1
0.14966774 3.5778952 1.2665936 2 -1
0.14438266 3.8564034 1.3880384 2 -1
0.16664892 4.1801496 1.4381291 2 -1
0.15652668 4.5915098 1.5529398 2 -1
0.16158992 5.1058311 1.7103885 2 -1
0.20091581 5.8232212 1.9163724 2 -1
0.80263501 4.7377276 1.585745 3 -1
0.90585846 4.4530301 1.4920293 3 -1
1.0132205 4.3278894 1.4606049 3 -1
1.0965371 4.2496896 1.4218712 3 -1
1.1773868 4.1691618 1.3877764 3 -1
1.2779945 4.1045213 1.400736 3 -1
1.3662449 4.0608573 1.3791739 3 -1
1.4361079 4.0290203 1.3958502 3 -1
1.5361097 3.9949031 1.3842186 3 -1
1.6144494 3.9895535 1.3841861 3 -1
1.7102814 3.9801741 1.3608116 3 -1
1.228951 2.0959246 0.79125738 3 -1
1.2285784 1.9769893 0.73672986 3 -1
1.2283573 1.9196377 0.72098243 3 -1
1.2211248 1.8444533 0.72443402 3 -1
1.2269597 1.8110001 0.69596589 3 -1
1.2297518 1.7846625 0.7113173 3 -1
1.2530707 1.7433858 0.67097688 3 -1
1.2597204 1.7148445 0.67008209 3 -1
1.2535819 1.6844358 0.65508485 3 -1
0.12221557 1.1256573 0.74466896 2 -1
0.11118877 1.1641407 0.75658584 2 -1
0.10164189 1.1845597 0.74148738 2 -1
0.11483049 1.224974 0.7513634 2 -1
0.13215059 1.2621655 0.7453469 2 -1
0.11987513 1.2681499 0.74791789 2 -1
0.10858589 1.2946609 0.75098789 2 -1
0.10183716 1.3347514 0.7536 2 -1
0.11401176 1.3655072 0.73791015 2 -1
0.096686304 1.3569756 0.74738216 2 -1
0.10857439 1.3944578 0.75185621 2 -1
0.098210752 1.4374962 0.75157869 2 -1
0.11357343 1.4577699 0.76762724 2 -1
0.11571532 1.4897462 0.76888406 2 -1
0.11079925 1.5257375 0.75646043 2 -1
0.12599736 1.5572226 0.7515558 2 -1
0.10773575 1.5715594 0.78147614 2 -1
0.11944795 1.6027474 0.78359139 2 -1
0.099403024 1.6420362 0.78633749 2 -1
0.10439748 1.6989202 0.80911839 2 -1
0.12815368 1.7261751 0.81379259 2 -1
0.11006093 1.774135 0.80911541 2 -1
0.10736018 1.8014865 0.81487989 2 -1
0.13132876 1.8456776 0.82515621 2 -1
0.12058002 1.8700684 0.82374156 2 -1
0.12805837 1.9260201 0.8360039 2 -1
0.11786914 1.9672675 0.87070596 2 -1
0.10273755 2.0223918 0.87313652 2 -1
0.1029197 2.0802233 0.88227069 2 -1
0.10930067 2.1204574 0.90700388 2 -1
0.12673134 2.1927454 0.9220947 2 -1
0.11038703 2.2564652 0.95108068 2 -1
0.10493726 2.3449721 0.94732618 2 -1
0.12531644 2.419903 0.99212754 2 -1
0.12341046 2.5116432 1.0139776 2 -1
0.12803864 2.6233561 1.042344 2 -1
0.14053142 2.7330866 1.06489 2 -1
0.13557684 2.8649988 1.1068194 2 -1
0.13425457 3.006139 1.1365896 2 -1
0.13879335 3.1798434 1.1852174 2 -1
0.13761687 3.3558698 1.2573252 2 -1
0.1378668 3.5796132 1.3192394 2 -1
0.16898674 3.8486362 1.4139371 2 -1
0.17578685 4.1835995 1.5072455 2 -1
0.17235613 4.5875454 1.6335903 2 -1
0.15480042 5.1214056 1.8154448 2 -1
0.17783427 5.8169856 2.0527372 2 -1
0.77835399 4.7611623 1.6672208 3 -1
0.91582465 4.4696345 1.5937167 3 -1
1.0002668 4.3384356 1.5270849 3 -1
1.0853851 4.2291718 1.5026351 3 -1
1.1986932 4.1581407 1.4804349 3 -1
1.2752204 4.1074862 1.4769896 3 -1
1.3462853 4.0681348 1.4701902 3 -1
1.4431336 4.0354114 1.4470966 3 -1
1.5296303 4.0170407 1.4307809 3 -1
1.6210201 3.9952908 1.4548197 3 -1
1.7167985 3.9908452 1.4510521 3 -1
1.2511631 2.1093144 0.81893098 3 -1
1.2127166 1.9746046 0.75936258 3 -1
1.213064 1.9229362 0.73626661 3 -1
1.2237902 1.8671718 0.71755254 3 -1
1.2342292 1.8098202 0.72655284 3 -1
1.2517282 1.7676947 0.70077729 3 -1
1.2199436 1.7489096 0.68817556 3 -1
1.2487705 1.6889784 0.685902 3 -1
1.2422178 1.6883216 0.68047452 3 -1
0.1105845 1.1414471 0.76942408 2 -1
0.11702061 1.1688192 0.75262165 2 -1
0.11377043 1.1871992 0.7513684 2 -1
0.11373264 1.2164476 0.77081108 2 -1
0.10919112 1.2445221 0.75087476 2 -1
0.10653538 1.2658017 0.74912679 2 -1
0.11308992 1.2961147 0.7693193 2 -1
0.090020657 1.311259 0.78451395 2 -1
0.10888624 1.3333623 0.76550674 2 -1
0.094802678 1.3890355 0.78454685 2 -1
0.11048484 1.4102824 0.77339065 2 -1
0.11089963 1.4364641 0.77692902 2 -1
0.12166119 1.4585164 0.78216624 2 -1
0.1158908 1.4901284 0.79395294 2 -1
0.10964334 1.5091871 0.77179515 2 -1
0.11588913 1.5569644 0.78342927 2 -1
0.091337323 1.5606092 0.78219211 2 -1
0.11528456 1.6059264 0.82075274 2 -1
0.11628515 1.6552567 0.81009376 2 -1
0.10182261 1.6925106 0.81798697 2 -1
0.12614375 1.7006179 0.8383745 2 -1
0.11723608 1.7564167 0.84762347 2 -1
0.10650116 1.7956096 0.84426892 2 -1
0.13416249 1.8232996 0.83670187 2 -1
0.12595719 1.8821747 0.87324238 2 -1
0.11412239 1.9327328 0.87470412 2 -1
0.11482263 1.9565346 0.87970304 2 -1
0.11445242 2.031569 0.87986791 2 -1
0.13119501 2.0831769 0.90779865 2 -1
0.12702954 2.1340365 0.93468916 2 -1
0.11889243 2.2022181 0.94550586 2 -1
0.12729198 2.2587447 0.95725083 2 -1
0.14258593 2.3493772 1.00131 2 -1
0.12328476 2.4240971 1.0195364 2 -1
0.14570677 2.5136092 1.0331564 2 -1
0.13480008 2.6274433 1.0894367 2 -1
0.13200724 2.7262998 1.0957198 2 -1
0.1328966 2.8654742 1.1586689 2 -1
0.1433478 2.9898171 1.180249 2 -1
0.12240434 3.1509037 1.2532214 2 -1
0.13795584 3.3378935 1.3010566 2 -1
0.1498425 3.5852246 1.3884989 2 -1
0.15776747 3.8154678 1.4833962 2 -1
0.14832288 4.1557646 1.5926183 2 -1
0.16944504 4.5650935 1.7191818 2 -1
0.19590944 5.1058955 1.8967631 2 -1
0.79386449 4.7494645 1.7584249 3 -1
0.90256077 4.4576321 1.6518427 3 -1
1.031682 4.3360262 1.600785 3 -1
1.1050732 4.2533908 1.5533843 3 -1
1.2117388 4.1558886 1.551288 3 -1
1.2587829 4.0978842 1.5491539 3 -1
1.3679148 4.0600648 1.5344248 3 -1
1.4381722 4.0395975 1.5226792 3 -1
1.5390074 3.9974246 1.5046592 3 -1
1.6141902 3.9941139 1.5265982 3 -1
1.7132155 3.987659 1.5139389 3 -1
1.2506397 2.1098716 0.82514763 3 -1
1.2214329 1.9925358 0.78586018 3 -1
1.2158003 1.9089217 0.77699292 3 -1
1.2194598 1.8472927 0.74183547 3 -1
1.226485 1.8206162 0.75205946 3 -1
1.2440283 1.7706864 0.72119522 3 -1
1.2290474 1.7403948 0.70018077 3 -1
1.2530652 1.7275928 0.71163476 3 -1
1.2381405 1.6960087 0.71383715 3 -1
0.098569214 1.1623608 0.77132022 2 -1
0.11178476 1.1764771 0.78763688 2 -1
0.09568733 1.2056988 0.77952409 2 -1
0.1052317 1.2277617 0.77245963 2 -1
0.10116565 1.2539616 0.78907025 2 -1
0.089262068 1.250213 0.79540169 2 -1
0.12194502 1.2921528 0.77112353 2 -1
0.09248209 1.31124 0.7799561 2 -1
0.11106932 1.3481501 0.78940642 2 -1
0.11242402 1.38165 0.78569925 2 -1
0.10505617 1.4104496 0.81126404 2 -1
0.099722266 1.4297532 0.80333674 2 -1
0.1066792 1.4477017 0.81675589 2 -1
0.09337616 1.4926867 0.80723476 2 -1
0.11001164 1.499068 0.81742299 2 -1
0.10246247 1.5607321 0.80899394 2 -1
0.11993289 1.5868869 0.82857108 2 -1
0.10539359 1.6175349 0.82074142 2 -1
0.11057067 1.6560621 0.84633148 2 -1
0.10860169 1.6874945 0.82282043 2 -1
0.11933941 1.7143292 0.85954428 2 -1
0.12417293 1.7498612 0.86540639 2 -1
0.11546385 1.7998555 0.86343431 2 -1
0.12843686 1.836385 0.88676167 2 -1
0.11281055 1.8706071 0.89120555 2 -1
0.12928534 1.9221916 0.90616846 2 -1
0.11204398 1.9501114 0.9200114 2 -1
0.12850511 2.0487213 0.9310751 2 -1
0.12900823 2.0757895 0.95399356 2 -1
0.13293535 2.1257765 0.9545511 2 -1
0.12813395 2.216727 0.97718549 2 -1
0.10951245 2.2451382 1.0182666 2 -1
0.11341095 2.3400221 1.0083823 2 -1
0.15197462 2.4384251 1.0376779 2 -1
0.1466403 2.5068777 1.0884981 2 -1
0.14005017 2.6312366 1.1106912 2 -1
0.13552815 2.7307303 1.1468298 2 -1
0.12328595 2.8331838 1.1800165 2 -1
0.14975947 3.004643 1.2303954 2 -1
0.13165599 3.1689305 1.2946303 2 -1
0.13286793 3.3470187 1.3595877 2 -1
0.14607245 3.5585876 1.4415691 2 -1
0.14795792 3.8308768 1.5331259 2 -1
0.14933389 4.1460037 1.6566216 2 -1
0.16868418 4.5723495 1.8288559 2 -1
0.15327221 5.116909 2.0109601 2 -1
0.79845005 4.7611752 1.8497065 3 -1
0.91051489 4.4623718 1.749859 3 -1
1.0038719 4.3325801 1.69829 3 -1
1.1171693 4.2232227 1.6633078 3 -1
1.1910586 4.1546307 1.6425109 3 -1
1.2926733 4.0909629 1.6017344 3 -1
1.3456738 4.0759282 1.5846437 3 -1
1.4435641 4.0344419 1.5848317 3 -1
1.5180025 4.0049062 1.5769926 3 -1
1.6208894 3.9967299 1.5720692 3 -1
1.6967947 3.9569368 1.5888448 3 -1
1.2236285 2.1062675 0.86215293 3 -1
1.2170069 1.9835136 0.81346846 3 -1
1.2333469 1.9127982 0.79421115 3 -1
1.2223996 1.8404007 0.76933765 3 -1
1.2428006 1.8238425 0.76545477 3 -1
1.2352142 1.7727151 0.74628294 3 -1
1.2410321 1.7387481 0.73708117 3 -1
1.2269156 1.7289091 0.71883631 3 -1
1.2438169 1.7123046 0.70876598 3 -1
0.11902857 1.138611 0.81581736 2 -1
0.10649741 1.1597891 0.80566096 2 -1
0.093593895 1.1863883 0.81478202 2 -1
0.11059105 1.2101357 0.81689036 2 -1
0.098452747 1.2585143 0.82264173 2 -1
0.12687129 1.2600106 0.80409217 2 -1
0.10479552 1.3075961 0.81674778 2 -1
0.092825174 1.3340943 0.81468391 2 -1
0.10691005 1.3548644 0.80717576 2 -1
0.099505305 1.3771046 0.81701601 2 -1
0.12997693 1.3992399 0.8403424 2 -1
0.11051083 1.4292639 0.82477105 2 -1
0.11960119 1.4506047 0.82043087 2 -1
0.12539935 1.4659574 0.83034527 2 -1
0.1071139 1.4966193 0.81967449 2 -1
0.10681254 1.5368782 0.81515658 2 -1
0.12174338 1.5757396 0.8555268 2 -1
0.12518787 1.6069975 0.83383405 2 -1
0.10781157 1.6373549 0.87077427 2 -1
0.13749713 1.6667461 0.8605274 2 -1
0.1396383 1.7219272 0.87778378 2 -1
0.1254518 1.7672391 0.86910737 2 -1
0.12592149 1.8117781 0.88174295 2 -1
0.12125295 1.848563 0.88823533 2 -1
0.10237515 1.8827875 0.90656936 2 -1
0.13359296 1.9131718 0.92997563 2 -1
0.097012162 1.9620514 0.94239163 2 -1
0.12427908 2.0207896 0.97020984 2 -1
0.12724435 2.0951257 0.97454703 2 -1
0.12364846 2.1386423 0.98341274 2 -1
0.11889458 2.1947336 1.0005672 2 -1
0.13676381 2.266397 1.0347708 2 -1
0.13552129 2.3521056 1.0613552 2 -1
0.12155873 2.3952532 1.0989542 2 -1
0.14058644 2.5228148 1.1145325 2 -1
0.11938715 2.6180878 1.1496693 2 -1
0.13051552 2.7283545 1.1826935 2 -1
0.1602689 2.8595166 1.2511272 2 -1
0.124201 2.9852624 1.2911674 2 -1
0.16838777 3.1541281 1.3536383 2 -1
0.13563496 3.3464923 1.4174638 2 -1
0.14395148 3.5837393 1.5250555 2 -1
0.14007318 3.8578978 1.5932255 2 -1
0.15539324 4.1751466 1.7349433 2 -1
0.1661672 4.5867767 1.8999168 2 -1
0.17945641 5.1181884 2.1025369 2 -1
0.8039909 4.7432876 1.9132477 3 -1
0.90543085 4.4676995 1.8231387 3 -1
1.0075746 4.3337135 1.7625757 3 -1
1.0901144 4.2169051 1.7308549 3 -1
1.1839833 4.1685472 1.7053438 3 -1
1.2721894 4.097899 1.6813716 3 -1
1.3492479 4.0533452 1.6769385 3 -1
1.4674311 4.0361481 1.6534842 3 -1
1.5462365 4.001359 1.6605704 3 -1
1.6024785 3.991096 1.6664754 3 -1
1.7040889 3.9874201 1.670908 3 -1
1.2283553 2.1073813 0.87144351 3 -1
1.2301098 1.975019 0.81047428 3 -1
1.2186433 1.9089577 0.79365075 3 -1
1.2329994 1.8413818 0.76680768 3 -1
1.2375804 1.7963829 0.77467024 3 -1
1.2413839 1.7776673 0.75776458 3 -1
1.2524103 1.7488937 0.73311651 3 -1
1.2553442 1.718215 0.74476528 3 -1
1.2659523 1.6618402 0.73342896 3 -1
0.12265396 1.1293405 0.83115613 2 -1
0.10386693 1.1744987 0.82493043 2 -1
0.11501211 1.1866308 0.82028675 2 -1
0.11715347 1.2137555 0.82512987 2 -1
0.095351875 1.2438477 0.81612384 2 -1
0.11061698 1.270623 0.83058941 2 -1
0.10353833 1.2780998 0.81863129 2 -1
0.11602485 1.3224523 0.82847691 2 -1
0.097320259 1.3575268 0.82132816 2 -1
0.11951566 1.3727858 0.82346237 2 -1
0.099384725 1.3872675 0.84525549 2 -1
0.1012643 1.4249116 0.84508955 2 -1
0.10486495 1.4538835 0.84408689 2 -1
0.11568552 1.5003898 0.8558296 2 -1
0.11538607 1.5081599 0.84770322 2 -1
0.11127019 1.5503824 0.8713342 2 -1
0.11382145 1.5773156 0.88015997 2 -1
0.10885286 1.6108165 0.88375545 2 -1
0.10913205 1.6365235 0.88531697 2 -1
0.12376064 1.675318 0.89469063 2 -1
0.11423224 1.7217543 0.90111375 2 -1
0.11653805 1.7553878 0.89694011 2 -1
0.1160928 1.785681 0.92158675 2 -1
0.10709172 1.8304496 0.92622364 2 -1
0.10736907 1.8710761 0.96503973 2 -1
0.11134207 1.9232831 0.96231771 2 -1
0.124951 1.9955859 0.98148203 2 -1
0.12210029 2.0116301 0.97223473 2 -1
0.11909711 2.0652585 1.0007633 2 -1
0.11940736 2.1371565 1.0288845 2 -1
0.13005626 2.1965845 1.0604395 2 -1
0.12668324 2.2823074 1.0839303 2 -1
0.13206375 2.3456895 1.0998018 2 -1
0.11789191 2.4160469 1.1354612 2 -1
0.12406468 2.5012834 1.1612561 2 -1
0.13421243 2.6041417 1.1983408 2 -1
0.13861006 2.7227516 1.2362734 2 -1
0.13622773 2.860508 1.2928289 2 -1
0.13680762 3.024826 1.3374635 2 -1
0.14534312 3.1586895 1.4222612 2 -1
0.14758164 3.3543868 1.4896234 2 -1
0.14839816 3.570436 1.5724175 2 -1
0.15242732 3.8361592 1.6823729 2 -1
0.15892708 4.1645932 1.8075261 2 -1
0.16988975 4.5703335 1.9881763 2 -1
0.80418062 4.7305994 2.0245771 3 -1
0.91244096 4.4630489 1.89982 3 -1
1.011175 4.3270955 1.846951 3 -1
1.1018479 4.243114 1.8109783 3 -1
1.2121341 4.1544919 1.7603004 3 -1
1.2886261 4.1017823 1.7681229 3 -1
1.3733549 4.0511274 1.7439736 3 -1
1.4451935 4.0234308 1.7313893 3 -1
1.5450501 4.0016084 1.7202661 3 -1
1.6315985 4.0037928 1.7352207 3 -1
1.726017 3.9717541 1.7349596 3 -1
1.2347534 2.111136 0.91183591 3 -1
1.2003639 1.9821594 0.86375403 3 -1
1.2098935 1.9020128 0.83967423 3 -1
1.2336738 1.8477361 0.80023718 3 -1
1.224227 1.7941618 0.79161382 3 -1
1.2307312 1.7699425 0.76480627 3 -1
